# .PCD v0.7 - Point Cloud Data file format
VERSION 0.7
FIELDS x y z intensity
SIZE 4 4 4 4
TYPE F F F F
COUNT 1 1 1 1
WIDTH 1172
HEIGHT 1
VIEWPOINT 0 0 0 1 0 0 0
POINTS 1172
DATA ascii
13.746288 3.2398136 3.2463412 1.1097963
13.860647 3.3103709 3.3401868 1.0898554
14.025422 3.2250056 3.2753706 1.0917306
14.311908 3.2999582 3.3333387 1.0975738
14.485819 3.2793372 3.3314602 1.0898108
14.651958 3.2431746 3.2923753 1.09242
14.910208 3.240839 3.2705822 1.093709
15.101182 3.2409673 3.2661164 1.0701103
15.274389 3.2224362 3.278523 1.0718303
15.4354 3.2147932 3.2780848 1.0819317
15.665724 3.26336 3.2490072 1.0987034
15.866774 3.3204131 3.2914648 0.83872187
16.103127 3.3465245 3.2701688 0.40195036
16.33028 3.3107882 3.2082858 0.087072402
16.564152 3.2822795 3.3287301 0.57789385
16.687668 3.2768905 3.2263107 0.12035788
16.906345 3.2791951 3.246525 0.21159422
17.132614 3.3183827 3.2671227 0.33174953
17.337423 3.3620896 3.2255785 0.073486522
17.465408 3.3260546 3.2881722 0.32420975
17.750078 3.3146985 3.2478745 0.14358661
17.924953 3.2189476 3.3328848 0.1050852
18.014524 3.3244846 3.2289 0.21415597
-2.014039 3.5097575 3.3697345 0.21379834
-1.813866 3.5332353 3.2407146 1.1094718
-1.7869368 3.5359287 3.2604723 1.1097484
-1.4957207 3.5080192 3.28196 0.59246075
-1.3118489 3.4963319 3.3951604 0.076071478
-1.0831996 3.4153619 3.2545917 0.19247225
-0.82962406 3.4753327 3.3007202 0.088504545
-0.66284651 3.4485159 3.3808012 0.071418017
-0.52618515 3.4638991 3.3214631 0.70831358
-0.27207154 3.4602466 3.3141537 0.074991412
-0.10417663 3.4669471 3.3464861 0.59844071
0.17925018 3.466177 3.3240662 0.58834714
0.30540636 3.4246311 3.2818615 0.063320421
0.56444067 3.4822555 3.3365946 0.58764517
0.72808254 3.5308037 3.3256793 0.85236543
0.97879988 3.5468488 3.3815846 1.116621
1.1065992 3.4968367 3.2934866 0.073385641
1.2652528 3.5181983 3.3281062 0.58950335
1.4833925 3.4704869 3.3869553 1.0528135
1.6608514 3.5570858 3.377594 0.98770237
1.84252 3.5209875 3.2726786 0.065334268
2.1413517 3.5180192 3.3010974 0.70503628
2.2804039 3.5460794 3.3173633 0.71296537
2.4487362 3.5841615 3.3695364 1.087796
2.7132125 3.5607295 3.3455434 0.85804868
2.9424462 3.529211 3.3453007 0.9349885
3.0604086 3.5773716 3.3616657 1.0337741
3.2868993 3.5742912 3.3775425 1.1100001
3.5447516 3.5785828 3.3815169 1.0470581
3.7190163 3.5671864 3.3955736 0.88537502
3.8804827 3.5717673 3.3325126 0.74362469
4.0221906 3.5339601 3.3799863 0.58913392
4.2898254 3.5297911 3.3771152 0.58766168
4.5488014 3.4651465 3.3620548 0.061118398
4.6731911 3.4493446 3.3708084 0.5940237
4.8711042 3.438261 3.3326209 0.059803825
5.0415382 3.5484142 3.3775995 0.58428103
5.3310595 3.5908537 3.3628559 0.58821559
5.5087967 3.470078 3.3276517 0.065982819
5.7131824 3.4728613 3.2993441 0.07612431
5.8473463 3.539284 3.2298923 0.068206459
6.1408148 3.5125771 3.2722988 0.075196654
6.3514023 3.5721302 3.3699751 0.076904058
6.4296918 3.5823264 3.3587761 0.063183159
6.6304216 3.5508447 3.3447714 0.062912241
6.9163008 3.4621568 3.3516469 0.076505601
7.1550856 3.5151916 3.36447 0.076985307
7.2196403 3.4729223 3.3582759 0.078834057
7.4941368 3.4377146 3.3350358 0.079982348
7.7175465 3.4781141 3.3604364 0.085800439
7.8557119 3.4575493 3.3319955 0.08200407
8.1201382 3.4571304 3.377337 0.60079974
8.3144455 3.4966536 3.3723669 0.60329169
8.4515467 3.4541683 3.3856049 0.60000169
8.7286711 3.4072118 3.3437152 0.081804514
8.8600807 3.4365718 3.3285823 0.079845786
9.1263752 3.4763169 3.3708107 1.1164999
9.3060322 3.5953863 3.3668094 0.079156876
9.5280457 3.4843688 3.3781857 0.60134077
9.7788563 3.517704 3.3892937 0.088329792
10.016045 3.5277081 3.3695118 0.090389252
10.318954 3.4501581 3.3715405 1.0927968
10.511312 3.5700383 3.3700726 0.60211277
10.745651 3.421289 3.3590417 1.1018064
10.928371 3.5592113 3.3401966 0.8167522
11.165204 3.5607839 3.3256238 1.0415107
11.232263 3.493844 3.3298745 1.0676171
11.443748 3.4490485 3.2619693 1.0340159
11.635456 3.436564 3.3114338 1.0647807
11.922911 3.4797962 3.3524003 1.0973496
12.076987 3.5402136 3.3767211 0.090702228
12.358849 3.4897439 3.3480585 0.98577958
12.477625 3.4850211 3.2905903 1.007895
12.640095 3.4982958 3.2934742 1.0402627
12.932573 3.5254874 3.3065536 1.0550487
13.138325 3.501591 3.3248417 1.1144385
13.321308 3.5417609 3.3253596 1.0699141
13.535271 3.4387293 3.262408 1.0730877
13.645321 3.4999878 3.3368568 0.85219228
13.958374 3.4987383 3.3324513 0.86069316
14.05634 3.4833846 3.3220921 0.59542453
14.277728 3.4800277 3.3258247 0.59160709
14.549746 3.5183306 3.3885365 0.056364942
14.667353 3.5795972 3.3179677 0.0831936
14.907626 3.5374942 3.3224158 0.59332943
15.170958 3.4832933 3.3433256 0.84427589
15.277174 3.4745848 3.3562737 1.0360812
15.490739 3.4618325 3.3708858 1.0659148
15.653197 3.4617798 3.3670712 0.97116965
15.854944 3.4348474 3.3507614 1.0864625
16.030766 3.4922683 3.3746347 1.0389626
16.290913 3.4285555 3.3539505 0.84465194
16.502075 3.505722 3.2583127 0.079261094
16.71763 3.5652449 3.2329874 0.081974119
16.932766 3.5677176 3.2275157 0.1431717
17.16889 3.5710614 3.2805386 0.14721647
17.282669 3.4957986 3.2989807 0.091766402
17.470495 3.5325165 3.2487078 0.088593885
17.665749 3.4926648 3.2941499 0.089964055
17.920429 3.423476 3.3345652 0.10520512
18.019737 3.5536146 3.2377193 0.10158542
-2.0039499 3.7083061 3.3551857 1.1177502
-1.8886595 3.6194525 3.2508342 0.31480402
-1.6461003 3.6702149 3.3147719 0.077127993
-1.4952559 3.6456866 3.2506175 0.077413552
-1.3509638 3.635993 3.2931871 0.10788123
-1.0913484 3.6521704 3.2429602 0.106258
-0.91855019 3.6560779 3.2686 0.18398926
-0.64115989 3.6698198 3.2358618 0.12459689
-0.56243491 3.6286609 3.229836 0.093317039
-0.31699413 3.7057974 3.3022907 0.31595489
-0.15303721 3.7262633 3.2314367 0.59121811
0.11666308 3.6818888 3.328624 0.056127153
0.3164252 3.6783385 3.3446784 0.089432299
0.46898443 3.6289086 3.3903394 0.056601554
0.63325143 3.6211603 3.2919798 0.064942911
0.91868305 3.6805937 3.2761858 0.45061445
1.0951612 3.6611643 3.2523437 0.12389487
1.3057082 3.6803269 3.3049178 0.13426919
1.5649763 3.7042174 3.2331779 0.31806493
1.6485884 3.7147193 3.2513633 0.58873701
1.8874335 3.7030189 3.2664762 0.094317548
2.1150322 3.7345073 3.3219254 0.14887024
2.2689557 3.729466 3.2856069 0.11183488
2.5096166 3.6708241 3.2730651 0.41036582
2.6662869 3.6174984 3.2104497 0.059886806
2.8447661 3.605515 3.2217855 0.059016719
3.0925713 3.60288 3.3070769 0.58925092
3.3330381 3.6033905 3.2715912 0.060138192
3.4274154 3.6034563 3.2843089 0.059173729
3.696063 3.6261599 3.3035588 1.1059825
3.8885465 3.6316714 3.3188989 1.1057937
4.0781713 3.6212845 3.357182 1.0565484
4.2316732 3.6290009 3.3823857 1.0916133
4.4191628 3.6243181 3.3775368 1.1056132
4.7204638 3.6133027 3.3729982 1.0958658
4.9460945 3.6819286 3.2412288 1.0976518
5.1513638 3.6354942 3.3408499 1.0406063
5.3458157 3.6835675 3.2616615 1.0905931
5.5360746 3.6887434 3.2823186 1.1154026
5.7067919 3.6901684 3.2943096 1.0257428
5.9527154 3.6802111 3.3195667 1.0268272
6.1152825 3.6727221 3.3557074 1.0750724
6.2691455 3.6724844 3.3613789 1.0296154
6.485919 3.6907175 3.3037355 1.1194527
6.6332579 3.6657875 3.3682251 1.1208906
6.8794012 3.6946383 3.3262279 1.118679
7.1486692 3.7264748 3.2837481 1.0724958
7.3645525 3.7729659 3.2104812 1.0271947
7.4889679 3.7699637 3.2077842 1.0271095
7.7541475 3.7681103 3.2229528 1.0276362
7.8560762 3.7762814 3.2137609 1.0283287
8.0840769 3.785253 3.2134407 1.0289998
8.3369808 3.7792983 3.2304738 1.0292501
8.5252047 3.7763548 3.247273 1.0294298
8.6098518 3.7797494 3.252825 1.0295
8.8889198 3.7767963 3.2732995 1.0297499
9.1720009 3.7688732 3.2907305 1.0300004
9.3422146 3.7685611 3.3048868 1.031544
9.4888725 3.7735147 3.3183546 1.0302514
9.7790165 3.7679868 3.3361065 1.0318432
9.8081188 3.7686012 3.3412237 1.0305053
10.058525 3.7719088 3.3178866 1.0724019
10.295826 3.7724214 3.3061857 1.1159122
10.544521 3.7423096 3.3652947 1.0407364
10.784599 3.7219906 3.3843534 1.0312877
10.990789 3.6312644 3.342165 1.0315043
11.019373 3.6421247 3.3496311 1.0260406
11.337681 3.6938791 3.3476653 1.0410118
11.452187 3.770925 3.2707105 0.85576797
11.646534 3.7812734 3.3221068 0.85506642
11.918729 3.7544193 3.3745995 0.98059589
12.03143 3.756067 3.361083 0.99009138
12.312071 3.7420146 3.368824 0.59720582
12.492088 3.6867571 3.3482273 0.55417812
12.70934 3.7060361 3.3550596 0.97663856
12.909683 3.6564844 3.346415 0.59929824
13.151974 3.7212653 3.3633976 1.0683155
13.26293 3.6940856 3.3265624 0.083811961
13.54115 3.7042184 3.3439775 0.94227046
13.749708 3.7613044 3.3349636 0.083276354
13.919504 3.7560985 3.3805356 0.58926171
14.173763 3.7228255 3.3777788 0.085106775
14.268875 3.7259755 3.3825026 0.086567059
14.52998 3.7074208 3.3721204 0.086851358
14.739731 3.7269003 3.3816967 0.086980522
14.936652 3.7869411 3.3872015 0.086607024
15.13814 3.7760329 3.3808222 0.087520301
15.339119 3.7776165 3.379921 0.087038666
15.511291 3.7722168 3.3726509 0.087199807
15.656696 3.7734849 3.3756208 0.087765306
15.882597 3.719085 3.3783622 0.088148229
16.069471 3.7243962 3.3510942 0.088017419
16.290623 3.6981544 3.3478537 0.08806023
16.452103 3.6598687 3.2982659 0.087198913
16.704964 3.6717324 3.3465853 0.088875756
16.885441 3.6663446 3.265409 0.092874527
17.125645 3.6605158 3.3098836 0.092047989
17.231564 3.6797423 3.3809347 0.34665382
17.462856 3.6142678 3.3069859 0.10220897
17.741934 3.6475644 3.3226819 0.095409259
17.919825 3.752378 3.2449727 0.12947194
18.013163 3.709136 3.3150597 0.2063835
-1.6752365 3.8046658 3.3905134 1.1186874
-1.5199804 3.8132987 3.3972685 1.1194531
-1.3301458 3.81041 3.3959131 1.1207891
-1.1654155 3.8104205 3.3950953 1.1225312
1.7154452 3.8254886 3.3096273 0.062530279
1.80018 3.8433561 3.3085003 0.064320326
2.5437508 3.8530815 3.3201323 0.061313629
3.5353291 3.8207445 3.3101046 0.067232966
3.7812722 3.8048182 3.3001246 0.060679436
3.8364248 3.8136106 3.3088784 0.064029872
4.2968507 3.8315465 3.3258598 0.067519382
4.5665402 3.8236201 3.3462873 0.059708595
4.6922245 3.8226442 3.3254189 0.070533976
5.0450683 3.8366876 3.3278754 0.068446636
5.4270539 3.8215852 3.3410916 0.075919554
5.6654596 3.8685291 3.3325634 0.067463353
5.9019194 3.8511806 3.3248589 0.06686902
6.1027279 3.8539674 3.3374534 0.063382074
6.4431667 3.8048074 3.3422709 0.062571049
6.9507103 3.8117714 3.2746325 0.08227554
7.1491404 3.8363307 3.2956662 0.080329895
7.318727 3.8218765 3.2987685 0.085093908
7.4497132 3.8213909 3.2719336 0.076922148
7.6400948 3.8127785 3.3326352 0.070027307
7.9291534 3.8331919 3.3036771 0.090227447
8.3574963 3.8120294 3.2199039 0.88138092
8.4471302 3.8066254 3.2271662 1.100899
8.6650867 3.8028622 3.2482877 1.1020744
8.841588 3.8018761 3.2667551 1.1032712
9.0696278 3.8038483 3.2706161 1.1035675
9.2581968 3.8051579 3.2330828 1.1118691
9.4458847 3.8123879 3.241868 1.0493941
9.6456451 3.8153198 3.2531924 1.0965843
9.9542465 3.834949 3.2552614 1.1029092
10.135946 3.8687763 3.2821674 0.60431659
10.362576 3.8172479 3.2539725 1.1085002
10.531849 3.8206799 3.2508478 1.0665001
10.652628 3.8258338 3.2378492 1.0861328
10.88217 3.842381 3.22615 1.0292141
11.095066 3.8457968 3.2850604 0.94068658
11.332932 3.8516886 3.2440939 1.0381056
11.477142 3.8542988 3.2442017 1.0215328
11.700052 3.8752527 3.2118175 1.0308466
11.916105 3.8553445 3.2646327 1.0313621
12.123253 3.8727312 3.2336164 1.0311997
12.273235 3.8667455 3.2692261 1.035383
12.567965 3.8699138 3.266263 1.0370023
12.728448 3.889411 3.2258072 1.0335308
12.938873 3.8493643 3.3290305 1.0331304
13.178604 3.8707025 3.2831779 1.0338945
13.292126 3.8966093 3.2521825 1.0306289
13.565704 3.8719397 3.2947173 1.0605576
13.645331 3.9219618 3.2683277 1.0769467
13.902401 3.9580002 3.2886062 0.82016075
14.136301 3.9341638 3.3588662 0.72660851
14.245609 3.963599 3.2905064 1.1011941
14.449974 3.989377 3.2658217 1.082729
14.743653 3.9790564 3.3329687 1.1030203
14.939708 3.9956369 3.3002934 1.1055009
15.083799 3.996268 3.3202658 1.1053401
15.333431 3.9920821 3.3589392 1.1058786
15.505201 3.9899178 3.3880839 1.1058936
15.656669 3.948554 3.3225391 1.0925181
15.866592 3.9503207 3.3232563 1.0886004
16.069759 3.9392707 3.3406324 1.0964848
16.21525 3.9427705 3.3325193 1.0925257
16.475708 3.9237556 3.2542789 1.0292721
16.642309 3.920265 3.294621 1.0319821
16.873919 3.9724669 3.2061541 0.082455501
17.059681 3.9429109 3.2731025 0.5882436
17.282581 3.9361334 3.2781804 0.96797436
17.50811 3.9312134 3.3334842 1.0313199
17.736916 3.9074249 3.3274591 0.085823037
17.904701 3.855979 3.3219943 0.10297614
18.019905 3.9184928 3.3146825 0.1481908
10.634212 4.0072021 3.2734892 0.093735695
10.919665 4.008275 3.2194855 0.10255432
11.059875 4.0429106 3.2416892 0.093511581
11.327755 4.0167713 3.2256017 0.096308708
11.46886 4.0640717 3.2479529 0.093742847
11.745221 4.0339208 3.2297225 0.096545219
11.919464 4.0380707 3.313139 0.093351841
12.143875 4.0180058 3.3278122 0.096963167
12.290471 4.0303674 3.2625437 0.1014905
12.440086 4.0817637 3.2430656 0.092967033
12.695814 4.0171814 3.2829256 0.10306167
12.923334 4.0335636 3.2480364 0.10362858
13.175664 4.0249147 3.2220562 0.16311425
13.263576 4.0328417 3.3068089 0.10327409
13.519737 4.0507836 3.2480335 0.105385
13.724253 4.0181503 3.3145037 0.11161786
13.893484 4.0490794 3.3313556 0.11720739
14.127456 4.0635481 3.2580862 0.10625076
14.365591 4.0260992 3.217248 1.0897946
14.485081 4.0700083 3.2665296 0.59701931
14.740382 4.0269051 3.2738018 1.0751411
14.840914 4.0353041 3.2790513 0.41396821
15.158468 4.0781426 3.3051925 0.58706862
15.216055 4.040658 3.2934699 0.82350737
15.5502 4.06776 3.2370396 0.098282874
15.745283 4.0941868 3.2603247 0.47723526
15.969522 4.1419091 3.2957172 0.1040362
16.145376 4.1062136 3.3401408 0.10408654
16.339573 4.0914431 3.3812308 0.10582611
16.550949 4.1289101 3.2828217 0.13341369
16.736443 4.1302156 3.3112993 0.16632088
16.94075 4.138835 3.3238294 0.13440545
17.160246 4.1316919 3.3642459 0.10628486
17.326424 4.1275845 3.3762274 0.11190161
17.553999 4.1542249 3.2917595 0.16642343
17.725166 4.1582584 3.310667 0.22840896
17.899921 4.081655 3.3182726 0.19803873
18.001553 4.0904889 3.3110712 0.083294034
17.17396 4.2732706 3.3297834 0.10441208
17.671684 4.3199887 3.2885418 0.098603725
17.855516 4.2492952 3.2429769 0.10329819
-1.8795195 2.7482765 3.4291391 1.092
-1.7034416 2.6591494 3.4096088 1.092
-1.5529267 2.6556389 3.4324458 1.092
-1.2163543 2.7525532 3.4343944 1.0922186
-1.114876 2.7066593 3.4089794 1.0922499
-0.58675998 2.7805743 3.4094331 1.0924997
1.11011 2.799006 3.418071 1.0924997
17.978611 2.6784544 3.4469459 0.044750214
-1.967617 2.9516516 3.5504296 1.0922499
-1.7517518 2.9656305 3.4205785 0.1813128
-1.4348381 2.8919625 3.478909 1.0922499
-1.2925733 2.8197348 3.4586058 1.0922499
-1.1106608 2.8695111 3.444509 1.0923123
-0.84718841 2.9208329 3.4902596 1.0924978
-0.24262203 2.9260349 3.4605339 1.0927496
1.5136193 2.9106481 3.4500029 1.0927496
17.662785 2.9262233 3.4634285 0.047249794
18.012409 2.9273219 3.436059 0.045125008
-2.0398347 3.1175213 3.4176364 0.18218698
-1.9886049 3.1170702 3.4129086 0.090062618
-1.7341723 3.1878543 3.4336863 0.054007232
-1.4601672 3.1781139 3.4353106 0.55134672
-1.3445644 3.1637654 3.4180865 0.053932376
-1.1317791 3.1611602 3.4141424 0.058569018
-0.93880618 3.1792603 3.4139066 0.05933506
-0.74179637 3.1787691 3.4267254 0.052365892
-0.47189146 3.1730523 3.4206376 0.053305481
-0.27303749 3.1693563 3.413991 0.083747223
-0.15501288 3.1653295 3.411253 0.068541445
0.038026616 3.1771388 3.4094155 0.060911514
0.26204395 3.1904271 3.4082773 0.0549803
0.5294379 3.1824911 3.414784 0.08438924
0.7365278 3.1830902 3.4099545 0.18143676
0.8485868 3.098361 3.4165571 1.0529995
1.1580644 3.1652243 3.4112661 0.17824924
1.3749484 3.1674671 3.4252019 0.55830097
1.423507 3.1761031 3.4101419 0.30371094
1.6219728 3.119899 3.4182401 1.0531719
1.9597741 3.1643949 3.4579682 1.0591248
2.0324733 3.1290622 3.4310601 1.0536251
2.2714181 3.1337056 3.4226995 1.0534997
2.7574248 3.1950374 3.4446149 1.0542498
2.8400364 3.175447 3.4323788 1.0542498
3.0292182 3.1372209 3.4064329 1.0542498
15.25871 3.1510334 3.5666831 0.046500206
15.403944 3.1652241 3.4059572 1.0950003
16.587835 3.1820855 3.4301054 1.0939999
16.733435 3.1702917 3.4399214 1.09375
17.556976 3.1585071 3.4545722 1.0932503
17.681667 3.1455436 3.467936 1.0924997
17.87808 3.1932189 3.4414778 0.048166275
18.012543 3.1755126 3.4162931 0.045499802
-2.0636501 3.2896366 3.4194288 0.064652473
-1.8796197 3.33565 3.4142408 0.91870344
-1.7668036 3.3178275 3.4254639 0.99142706
-1.4946742 3.2443297 3.4556246 0.57269359
-1.3629339 3.3379111 3.4509399 0.12387397
-1.1425931 3.3407774 3.4493456 0.95492983
-0.90729535 3.3134928 3.4317126 0.22172789
-0.65194005 3.3926904 3.4304652 0.072608411
-0.52862298 3.322022 3.4577849 0.14001533
-0.25043496 3.3560486 3.4604917 0.075753696
-0.14233467 3.3868203 3.4873435 0.070379786
0.08825171 3.3528962 3.435956 0.066596642
0.31768876 3.3396158 3.4422336 0.089082725
0.51946759 3.338748 3.4244576 0.065727241
0.64695406 3.3531852 3.4108677 0.16764161
0.86593097 3.3563621 3.4157767 0.082656994
1.0922005 3.3318772 3.4372582 0.059058741
1.3054374 3.363297 3.4325294 0.063584313
1.5199566 3.3631916 3.4368727 0.21672694
1.6599998 3.3717451 3.4216442 0.52263182
1.830179 3.3285785 3.4127555 0.11653006
2.0674467 3.3499436 3.4192019 0.26624978
2.3051162 3.372952 3.4433165 0.42980668
2.5253253 3.3476613 3.4188702 0.10281146
2.7332015 3.3674788 3.4157476 0.058498353
2.8872571 3.341563 3.4245677 0.055991866
3.1283059 3.3735406 3.4338841 0.056754362
3.2896748 3.3663826 3.4219656 0.058054496
3.5006468 3.3768382 3.4153333 0.070689619
3.7577457 3.3814554 3.4120083 1.0544996
3.8976145 3.3534994 3.408246 0.57217836
4.1043119 3.3741279 3.4193544 0.57252502
4.3772554 3.3806882 3.4064813 0.057209969
4.5092378 3.3954687 3.4277418 0.07586956
4.6935587 3.3445301 3.4472718 0.095633268
4.9643126 3.3277767 3.4471869 0.095554352
5.1458249 3.3293028 3.4383476 0.09461832
5.3138294 3.3021736 3.4173455 0.59690249
5.488174 3.2777529 3.4229822 0.096354008
5.7626519 3.3793762 3.4505417 0.093162537
5.8739223 3.2921791 3.4214218 0.53451371
6.1151924 3.3430543 3.447186 0.58183014
6.3874254 3.2393062 3.4234431 0.098062515
6.4604826 3.3258052 3.4511361 0.095972776
6.7420177 3.2826228 3.4425473 0.09848547
6.8898354 3.3551364 3.4723835 0.098543167
7.5184722 3.3372557 3.402101 0.093224525
7.9651685 3.3950307 3.4004436 1.1094999
8.0466995 3.3362586 3.4082439 0.093007088
8.3233967 3.3808937 3.4114625 1.103375
8.4925156 3.3910751 3.4166126 0.9772296
9.8052168 3.3967116 3.4032373 1.1044998
10.094463 3.3918922 3.402952 1.1049995
10.227472 3.3926153 3.4066396 1.1052504
11.212761 3.3678193 3.4028826 0.048749924
11.444315 3.3912261 3.4097502 0.049126625
11.946272 3.3828385 3.4015272 0.050246239
12.164108 3.3835874 3.4035125 0.050735474
12.38533 3.3958032 3.4009869 0.051099777
12.425995 3.3482127 3.4178736 0.048000336
13.279219 3.2404006 3.400034 1.0967503
13.4344 3.3434052 3.4530396 0.047890663
13.698318 3.3138821 3.4402673 1.096508
13.864536 3.3842156 3.4750838 1.0965223
14.08236 3.3210642 3.4651253 1.0962496
14.303213 3.3192661 3.4381995 0.047901154
14.691828 3.3092608 3.4820151 0.57147074
14.905985 3.3890095 3.4509664 1.0970001
15.056927 3.3934679 3.4515862 1.0969727
15.232994 3.3899956 3.4566035 1.0970001
15.412222 3.3463414 3.4587812 1.0969986
15.601542 3.3558562 3.4949338 1.0947495
16.177938 3.2739494 3.4472198 1.0942497
16.314671 3.3703341 3.4176664 1.0860622
16.498259 3.3775048 3.4139056 0.9662981
16.691128 3.3938675 3.405004 1.0606213
16.857019 3.3632784 3.4220104 1.0973573
17.04258 3.3684921 3.4174376 1.0974998
17.256016 3.3586903 3.4305172 1.0974957
17.574043 3.3023858 3.4277563 1.086
17.923717 3.3177671 3.5124922 0.10434387
18.122017 3.3386762 3.4299183 0.80276042
-2.0200462 3.4034603 3.4927979 0.053384036
-1.8150444 3.4337456 3.4466038 1.1082516
-1.7962074 3.4184253 3.4346952 1.1101005
-1.4823333 3.4394743 3.4955404 0.09489096
-1.2573283 3.5478461 3.510359 1.0773867
-1.1115317 3.4762354 3.461174 1.0951897
-0.93734956 3.5671077 3.520596 0.98162657
-0.69572079 3.5612769 3.5056129 1.0464901
-0.44030875 3.5682263 3.5001774 1.0477318
-0.30110812 3.578908 3.4901707 1.1109574
-0.049890488 3.5681906 3.4993372 1.0957937
0.11716551 3.5815258 3.4948461 1.0809406
0.37734985 3.586699 3.499784 1.0968614
0.51404393 3.5729716 3.5303354 0.85515058
0.67311794 3.5541034 3.5337663 0.85290366
0.85300171 3.5771203 3.4971111 1.0802455
1.0947559 3.5844038 3.5020561 1.080457
1.3372428 3.5492375 3.4492233 1.1151845
1.492139 3.4597101 3.407279 1.1179913
1.6975932 3.5392332 3.4493237 1.1126835
1.9074619 3.5346408 3.4700432 1.0974084
2.0522904 3.5024025 3.4274058 1.116873
2.3117032 3.5799019 3.4915702 1.0977087
2.4829926 3.5619407 3.4807549 1.0978961
2.6974137 3.5235012 3.4426992 1.1138446
2.8672199 3.5322595 3.4436138 1.0919456
3.1266339 3.5621054 3.4511895 1.1052057
3.3532379 3.5475416 3.4734449 1.1047741
3.4639468 3.5700803 3.4863906 1.108833
3.6932392 3.5675046 3.4720697 1.1053274
3.8671103 3.567421 3.4841232 1.1089883
4.0525837 3.5718317 3.4601345 1.1059579
4.2768483 3.5699718 3.4557953 1.1112096
4.4917574 3.5444758 3.4371705 1.1125214
4.6911774 3.5730104 3.4754646 1.1105571
4.8606253 3.5757413 3.4398222 1.1033353
5.0735512 3.5867043 3.4543335 1.1131178
5.2648478 3.5750251 3.4753122 1.1057259
5.4964619 3.5893831 3.4357452 1.1094034
5.6873426 3.5729446 3.4350021 1.0751796
5.8969064 3.5779886 3.4741464 1.0922526
6.0431643 3.5536809 3.4777842 1.0556014
6.2625103 3.5714796 3.4517543 1.1094074
6.5143943 3.5517292 3.4900477 1.0690367
6.6999264 3.5690429 3.5042732 1.0441742
6.8691874 3.5541997 3.4852576 0.98352152
7.0632048 3.5626864 3.5118515 0.6315307
7.3273039 3.5692575 3.5224257 1.0464327
7.5677166 3.5796204 3.5056221 1.0982928
7.7268081 3.5418305 3.4586535 1.1018023
7.8299441 3.5332294 3.4650135 1.1078739
8.0627937 3.5564346 3.4745479 1.1044271
8.3281708 3.5668893 3.4688778 1.1087227
8.5068398 3.4629281 3.4308758 1.10621
8.7277489 3.5751805 3.4721303 1.100925
8.8714199 3.5500171 3.456646 1.0932406
9.0913944 3.5007792 3.4126406 1.1042523
9.3757935 3.5234807 3.4389286 1.0773101
9.5202551 3.4869628 3.4327505 1.0985503
9.7293091 3.534441 3.4183664 1.111985
9.8965588 3.5435035 3.4273655 1.1101079
10.076843 3.550211 3.4241366 1.1110547
10.23476 3.5607595 3.4799759 1.1046898
10.459723 3.5292225 3.4211698 1.1083717
10.759378 3.4723909 3.5567875 0.19530718
10.873654 3.5461867 3.4588964 0.97239804
11.143658 3.5072927 3.4117742 1.092041
11.229191 3.5611272 3.4450357 1.0767045
11.519938 3.4811954 3.5047548 0.60343575
11.63682 3.4914126 3.5553973 0.35270217
11.825963 3.5355706 3.4432888 1.1045954
12.059587 3.536037 3.4711313 0.85548246
12.33172 3.5140777 3.4503224 1.0892646
12.521712 3.493602 3.4257524 1.0864043
12.63884 3.50734 3.4427071 1.0930159
12.914345 3.5308125 3.468987 1.0928649
13.154121 3.5607495 3.4360032 1.1027476
13.27121 3.5715351 3.41012 1.1054564
13.433245 3.5574369 3.4104815 1.1060135
13.626513 3.5199454 3.4203544 1.1053103
13.93947 3.527257 3.413125 1.10342
14.071505 3.514935 3.4308567 1.0976194
14.245399 3.4356232 3.4331346 1.0888678
14.439214 3.4177325 3.4460006 1.0888758
14.718431 3.4893694 3.4248366 1.0892491
14.839727 3.4349709 3.4598067 0.9668029
15.139835 3.5792947 3.5363057 1.0805093
15.262065 3.5949149 3.5426702 1.0926648
15.437443 3.5908158 3.5467918 1.0886229
15.616592 3.5461888 3.5498538 1.0967491
15.89255 3.5242853 3.4852419 0.57606018
16.154961 3.5287066 3.4237585 0.30507013
16.388252 3.4869075 3.4216342 0.576841
16.500378 3.456974 3.4435256 0.85141885
16.620518 3.5193925 3.486948 0.63791907
16.861189 3.4919014 3.453505 0.57647294
17.122442 3.5406046 3.4708123 0.59187782
17.313951 3.5351 3.5111227 1.0001122
17.542629 3.5391777 3.5173881 0.46793401
17.633934 3.5727172 3.5352516 1.097257
17.920809 3.4197588 3.531996 0.10484383
18.038902 3.5723124 3.4889293 1.0538925
-1.870847 3.689744 3.4759784 1.1098319
-1.67641 3.6331668 3.4716225 1.1023141
-1.4936517 3.6253319 3.4656563 0.97088099
-1.2650523 3.6179402 3.4777482 1.0319285
-1.112582 3.6188669 3.4773817 1.0936327
-0.90995383 3.6115756 3.5320125 1.093696
-0.67684656 3.6171975 3.5103712 1.1033654
-0.40691352 3.612184 3.4956341 1.1134892
-0.39073849 3.6096723 3.4951549 1.1129131
-0.14670786 3.6145346 3.500658 1.1085925
0.12641451 3.6103504 3.5056815 1.1042571
0.3493697 3.6215258 3.4760747 0.84499687
0.56895626 3.6127 3.5046682 0.98430336
0.74747646 3.6154501 3.4972599 1.0533493
0.84229994 3.6331992 3.5040748 1.0989939
1.0262356 3.6267965 3.496393 1.0033997
1.3330431 3.6298051 3.5028181 1.1035733
1.5300733 3.620507 3.516077 0.98558497
1.6745138 3.6116633 3.5546489 0.092232913
1.9000499 3.6198359 3.5129995 0.86268687
2.0808482 3.615819 3.4796796 1.1133175
2.2721963 3.6179523 3.5024869 0.85859013
2.5488133 3.6563256 3.5068789 0.86186802
2.6848831 3.670723 3.4792519 1.1204957
2.8805861 3.6686077 3.4811814 1.1191466
3.0951498 3.6849496 3.4857216 1.1157823
3.2184863 3.6598926 3.4773102 1.1197603
3.4795563 3.6323807 3.4740834 1.0544791
3.664566 3.6725011 3.498878 1.1094357
3.8801389 3.6468055 3.4978976 0.98892164
4.0479565 3.6346514 3.4811521 1.1157552
4.384531 3.6989441 3.4663134 1.1191394
4.4036388 3.6999559 3.4656277 1.1237497
4.6345148 3.6870837 3.4642916 1.1224645
4.8560739 3.6851888 3.4858885 1.1156249
5.0659914 3.6644912 3.4778471 1.1025174
5.2508097 3.6859593 3.4848809 1.1064894
5.4801025 3.696198 3.4897218 1.109652
5.6997175 3.6586728 3.4790301 1.1118064
5.8611407 3.7042708 3.4890466 1.1135203
6.0645194 3.6442928 3.4783115 1.1038685
6.2340059 3.6287019 3.4194379 1.1089977
6.5656147 3.7520323 3.4603081 1.0264276
6.652585 3.7756903 3.4644346 1.0272501
6.8747625 3.6647763 3.4415019 1.1196183
7.0828204 3.7285538 3.4694073 1.1189723
7.3175554 3.6369317 3.4495749 1.1165916
7.5090742 3.6761305 3.479784 1.115623
7.6787767 3.6794562 3.4654183 1.1148343
7.8493414 3.7160275 3.4840875 1.1152577
8.111599 3.6861629 3.4696212 1.115129
8.3429756 3.639554 3.4754019 1.1082108
8.4785442 3.6708407 3.4805241 1.1116719
8.7504444 3.7424793 3.4685636 1.1169764
8.8718376 3.7709286 3.4471114 1.0503446
9.113308 3.7358773 3.4317381 1.073958
9.2284365 3.7896781 3.4381187 1.0335159
9.4494228 3.7080429 3.4581125 1.117084
9.6456623 3.7539654 3.4271264 1.0719082
9.910676 3.7437336 3.4304037 1.0733446
10.136833 3.7170217 3.4425178 1.0704192
10.236136 3.6711793 3.4829986 1.1059054
10.544237 3.7591867 3.47574 1.1124531
10.700829 3.7679 3.4358735 0.99056375
10.941792 3.7254829 3.4856839 1.0527618
11.086575 3.6922531 3.4549584 1.1084735
11.264427 3.6740785 3.4381413 1.1140776
11.496017 3.6936631 3.4446206 1.1099365
11.626181 3.660969 3.4274209 1.1136291
11.919712 3.7386308 3.4505918 1.0847286
12.097692 3.6856637 3.4458261 1.1131523
12.345201 3.7274022 3.4409904 1.0817243
12.523828 3.7354341 3.4610825 1.1097343
12.727758 3.7862101 3.4597554 0.61823767
12.873817 3.6808357 3.4655399 1.1082494
13.085724 3.7170823 3.424968 1.1061199
13.327988 3.6935775 3.454577 1.1057521
13.442748 3.7275488 3.4366612 1.1096251
13.655277 3.7308669 3.4574516 1.1103759
13.846327 3.7507601 3.5140371 1.1041745
14.040989 3.6561241 3.5112939 1.0928078
14.276659 3.7413731 3.4949093 0.84657681
14.498935 3.6540551 3.4619923 1.0953041
14.652536 3.6192374 3.4736588 1.0933754
14.83934 3.6205206 3.5341663 1.0947767
15.057991 3.7086267 3.5211215 1.055094
15.250618 3.6537552 3.5308402 0.84906155
15.443371 3.7663198 3.4666882 0.59253836
15.692736 3.722261 3.4631646 0.97149849
15.900323 3.7086315 3.4905186 0.97317195
16.160412 3.740479 3.4856658 1.0703925
16.294157 3.7418845 3.457263 1.103624
16.45789 3.7183223 3.4998991 0.60443908
16.66646 3.668066 3.5032845 0.97248447
16.86907 3.6657267 3.5089917 0.97291338
17.06673 3.632097 3.515656 1.0659176
17.240356 3.6147184 3.5274644 1.0898927
17.459234 3.6195319 3.5267379 1.0462312
17.658649 3.7750683 3.4652042 0.59810865
17.907665 3.6231401 3.5347035 0.10496332
18.060524 3.735163 3.4418168 0.5860815
-1.4157014 3.832777 3.4061594 1.1209998
-1.3525171 3.8301368 3.4055476 1.1205013
-1.1745598 3.8404903 3.4085832 1.1219589
0.96023089 3.8238802 3.4625678 1.12075
1.1989181 3.8069327 3.4065864 1.0279999
1.3445435 3.8069997 3.4222274 1.1219876
1.416608 3.8243794 3.4239035 1.1166602
1.661081 3.822228 3.4442887 1.0746737
1.9400527 3.835171 3.4467802 1.0748751
2.0321767 3.8263152 3.4399936 1.0381017
3.154561 3.8057456 3.4434254 1.1120937
3.327826 3.8105905 3.4344401 1.0276698
3.4388437 3.8067729 3.4166286 1.0317502
3.8789268 3.8255572 3.434577 1.030875
4.1208882 3.8180485 3.4297607 1.0310001
4.3139539 3.8018517 3.4252975 1.0307498
4.5102048 3.8085351 3.4523349 1.0282028
4.6567512 3.8332791 3.4600892 1.0307503
4.8476734 3.8156848 3.4488697 1.0304989
5.2912741 3.826179 3.4519222 1.0767498
5.5607405 3.8045702 3.454577 1.0418439
5.65343 3.8035622 3.461874 1.0312935
5.9295998 3.8063822 3.4660583 1.0763737
6.0990944 3.817306 3.4517994 1.0549999
6.2586918 3.8082058 3.454505 1.0335138
6.4328728 3.820353 3.4432027 1.035677
6.6448827 3.8170767 3.4389145 1.0367353
6.9040174 3.8077569 3.4562917 1.0340002
7.0700531 3.8101892 3.4942193 1.0341251
7.2929382 3.8235233 3.4407978 1.0352497
7.4934406 3.8127947 3.4527345 0.20781726
7.6468978 3.8045511 3.4722047 1.0372732
7.9403124 3.8045459 3.4336667 0.3096717
8.10495 3.8107004 3.434052 0.18708108
8.2515793 3.8135157 3.4531178 1.0395702
8.456171 3.837079 3.4263239 0.32903504
8.7376747 3.8299334 3.4404957 0.58856142
8.9362793 3.8489287 3.4557166 0.560148
9.1707993 3.8284316 3.4482322 0.99870157
9.2993584 3.8412113 3.4551053 0.79440093
9.4790163 3.8929336 3.4541292 0.093216889
9.6960411 3.8492107 3.4500518 0.56120563
9.9170036 3.8359618 3.4969234 0.81381607
10.102512 3.8672924 3.4804199 0.73243088
10.368845 3.8928831 3.4605145 1.0306774
10.586502 3.8139119 3.4266667 1.0300891
10.660769 3.8445415 3.4548202 0.96462536
10.949132 3.8140821 3.4502616 1.0159628
11.077383 3.8134425 3.5610592 0.63935161
11.35744 3.8514507 3.5535622 0.6561684
11.475612 3.892909 3.5136731 0.10834832
11.76855 3.8754981 3.512414 0.09978883
11.889978 3.8868117 3.4566097 0.85085344
12.063355 3.8778162 3.4463983 1.0175143
12.274343 3.8409753 3.4480834 0.94539917
12.511171 3.8828435 3.4468298 0.62767977
12.642455 3.8944554 3.4824305 0.86271495
12.905471 3.841701 3.4374969 0.94685757
13.131182 3.9181089 3.4690232 0.86338758
13.313703 3.9121552 3.5293775 0.65986609
13.505888 3.8700862 3.4942079 0.97591782
13.722244 3.9777272 3.5033116 0.129473
13.869029 3.928371 3.5089555 0.61288923
14.142287 3.9403074 3.5459452 0.10060172
14.235298 3.8907652 3.5064039 0.60506326
14.562651 3.9863753 3.4859295 0.099504501
14.764038 3.9794092 3.528933 0.099878624
14.889994 3.9498913 3.5408936 0.31779289
15.096983 3.9628351 3.4065824 1.0344656
15.311136 3.9520354 3.5039399 0.59262049
15.447828 3.9562528 3.4163251 1.0810461
15.72547 3.974854 3.4208045 1.104948
15.887993 3.9656026 3.4422109 1.1062763
16.132584 3.9644108 3.4872172 1.1052499
16.281502 3.9478281 3.5309305 1.0997572
16.443836 3.9309807 3.5328407 1.081206
16.644093 3.9144697 3.4732566 1.0810513
16.843315 3.9083505 3.481312 1.0940553
17.027458 3.903492 3.4889565 0.59435362
17.378387 3.9286833 3.4800091 0.53116965
17.439106 3.9216225 3.4898906 0.40947688
17.650475 3.8789601 3.4519579 0.093129441
17.909008 3.9513011 3.4523356 0.10034215
18.028954 3.8205676 3.4388163 0.58530784
12.104239 4.0045085 3.5137269 0.092395782
12.650737 4.0031571 3.4434614 0.091532707
13.178375 4.0405626 3.4367137 0.097103119
13.505303 4.0241404 3.4340847 0.10484219
13.692413 4.046195 3.5131462 0.10232067
14.154598 4.0277681 3.4175422 0.10423708
14.329853 4.066978 3.5325041 0.097109795
14.473831 4.0970926 3.4840512 0.097576618
14.722964 4.0047235 3.4619384 0.08488369
14.87394 4.0544133 3.4192727 0.10435438
15.123449 4.0570002 3.4542537 0.091990471
15.268522 4.0205007 3.4206185 0.59740114
15.507312 4.0700512 3.4140463 0.098664671
15.731497 4.0513468 3.4398241 0.2267451
15.875134 4.0655098 3.4938204 0.1002901
16.162308 4.0429649 3.4904881 0.10714987
16.354958 4.0951357 3.4671245 0.11812544
16.488007 4.0212688 3.5460615 0.32463998
16.713545 4.1009684 3.4921136 0.11248677
16.93648 4.0793538 3.4763236 0.099565163
17.103617 4.0785971 3.4963808 0.099537849
17.359978 4.0583372 3.5438032 0.099493697
17.543983 4.1240149 3.5085788 0.10053913
17.72649 4.1152277 3.4598053 0.10167651
17.893291 4.0556278 3.5259738 0.10266942
18.011517 4.0976715 3.5036511 0.090099692
17.792152 4.2861118 3.5636587 0.09836483
17.844437 4.2016916 3.5246086 0.10391235
18.008249 4.2002954 3.471338 0.092237473
-1.5781271 3.1106546 3.6032028 1.0924997
16.768326 3.1517866 3.6268244 0.045000076
-1.1856153 3.2598765 3.6495035 1.0927496
-0.97960091 3.2196314 3.6241102 1.0927496
-0.62546742 3.3601727 3.6705415 1.0929995
-0.46967241 3.3693495 3.6337705 1.0929995
-0.24092476 3.2731838 3.6101336 1.0929995
-0.10442387 3.3184993 3.6170278 1.0931249
0.16597301 3.3433161 3.6307726 1.0932345
0.25563753 3.3052971 3.6138046 1.0932503
0.43814421 3.3944533 3.6489949 1.0932503
0.67914951 3.3626981 3.6147482 1.0934845
1.1321274 3.3841953 3.6089969 1.09375
13.189134 3.2610097 3.6191993 0.045999527
15.552235 3.3338268 3.6531773 0.046500206
17.672585 3.3582869 3.6909351 0.045499802
-1.5698779 3.4641521 3.6075888 0.051773071
-1.2948498 3.5727401 3.623035 1.0934376
-0.86058015 3.524497 3.6495097 1.0935624
-0.65407699 3.587008 3.6646318 1.0939374
-0.43181807 3.4548955 3.622201 1.093997
-0.32212889 3.4796295 3.6369994 1.0938125
-0.020354733 3.5357735 3.674366 1.09375
0.089637153 3.4884195 3.6166301 1.0761228
0.32715052 3.5635664 3.6445346 1.0938749
0.5334779 3.5171175 3.6516662 1.0910778
0.68288648 3.539463 3.6216803 1.0944371
0.95387208 3.5111146 3.6705222 1.0937481
1.1414669 3.5083914 3.6230354 1.0942497
1.2711323 3.535279 3.6297288 1.0929517
1.5593203 3.4746008 3.60361 1.064187
1.7179375 3.5808139 3.615737 1.0946716
1.9690419 3.464761 3.6112294 1.0942497
2.1073208 3.5887024 3.632153 1.0943747
2.3566194 3.4948826 3.6140842 1.0944996
2.7456424 3.5212598 3.6107359 1.0947495
3.125061 3.5405755 3.607388 1.0950003
3.4666915 3.5771089 3.6091883 1.0943751
3.9364951 3.5247731 3.625324 1.0944996
4.2409167 3.5911474 3.6426756 1.0947495
10.897462 3.5570729 3.6147938 0.10194206
11.289959 3.5395379 3.6158166 0.10218072
11.70064 3.5196033 3.6127837 0.10242212
11.802995 3.589659 3.6434472 0.10242748
12.143694 3.4990883 3.6088305 0.10216951
12.239525 3.5614471 3.6387289 0.10266471
12.646194 3.4941974 3.614625 0.10228682
12.819019 3.5963364 3.6677558 0.1029129
13.176774 3.4722812 3.6169257 0.10142899
13.225935 3.5080664 3.6296661 0.1025275
13.531856 3.4612162 3.7093153 0.045749664
13.781258 3.4680626 3.6247458 0.10142517
13.83144 3.5038857 3.639606 0.10221732
14.477947 3.495646 3.6456962 0.10205972
14.613215 3.5843582 3.6858253 0.10363197
15.143034 3.4609582 3.6395311 0.1014185
15.220241 3.5076406 3.6620779 0.10226703
15.43829 3.4413629 3.6212294 0.046250343
15.985577 3.4888599 3.6675854 0.10189629
16.050827 3.5334134 3.6854351 0.10293543
16.529324 3.4624922 3.6829443 0.046093941
16.731144 3.5731144 3.6094518 0.047155619
16.88187 3.5053687 3.6863828 0.10144004
17.073698 3.5539589 3.707952 0.074554443
17.844997 3.4954257 3.6969776 0.1023455
18.171997 3.5505652 3.6029503 0.047922134
-0.042057868 3.6202519 3.6855249 1.0942497
0.58502895 3.6118226 3.6512713 1.0944996
1.1383162 3.6225915 3.6382484 1.0947495
1.2935272 3.6068776 3.6971054 1.0939999
1.6746515 3.6197982 3.6290755 1.0949533
2.1687996 3.6368117 3.623986 1.0952032
2.2021818 3.61338 3.6109109 1.0952501
2.5818381 3.6605086 3.6456003 1.0951247
2.6143117 3.6445792 3.6242759 1.0953124
2.9754286 3.6330469 3.6517572 1.0950003
3.0416372 3.6619947 3.6171231 1.0955625
3.301878 3.6459489 3.6239183 0.59592199
3.4068863 3.6073678 3.629245 1.0952501
3.7379668 3.6392047 3.6109478 0.59629345
4.0966139 3.6354504 3.6096034 1.0957499
4.3042469 3.6759264 3.6180511 0.59678602
4.478065 3.6767366 3.6058917 0.59630489
4.7179079 3.6816471 3.6145759 0.59715366
5.0174589 3.6932068 3.6000853 1.0965004
5.3005705 3.6993968 3.6053541 0.59594202
5.48033 3.723166 3.6118889 0.095515728
5.6903815 3.6996379 3.612854 0.095736504
5.9458933 3.7118173 3.6087685 0.096382022
6.1223617 3.7131529 3.610148 0.096716642
6.3046579 3.7085795 3.6157262 0.097454071
6.5575514 3.7393456 3.6295121 0.097867906
6.7052617 3.7307992 3.6261744 0.097664595
6.8535595 3.6866264 3.605376 0.096571088
7.1261754 3.6873198 3.6080053 0.095964506
7.2475061 3.7064538 3.6157768 0.095993549
7.4963393 3.6963146 3.6170313 0.60064316
8.2620249 3.7975459 3.6416404 0.098532677
10.391897 3.6031673 3.6428304 0.10192776
10.490681 3.7760234 3.7118778 0.1014595
10.683046 3.7673373 3.6428089 0.10170364
10.872858 3.7130539 3.68047 0.10196733
11.11401 3.7288523 3.6783285 0.1019446
11.33534 3.687134 3.6841044 0.10224521
11.444263 3.6484013 3.6598063 0.10218439
11.633253 3.7714357 3.7259259 0.10219002
11.859718 3.6712027 3.683717 0.10253911
12.039207 3.7456837 3.7172146 0.10242891
12.327093 3.6220641 3.664258 0.10266972
12.457827 3.7378092 3.720104 0.10278092
12.763902 3.7921982 3.6551237 0.59910011
12.8571 3.6359034 3.6759167 0.11067139
13.037603 3.7558868 3.7221875 0.16498125
13.31682 3.6907701 3.6729112 0.35118866
13.43462 3.6487858 3.6904752 0.10703343
13.64292 3.7707553 3.7287579 0.22720253
13.908749 3.6808202 3.6577492 0.59969473
14.039812 3.6412849 3.7008235 0.10727567
14.225277 3.7640829 3.7320323 0.22741544
14.657341 3.6168008 3.6972368 0.10363412
14.844818 3.7444348 3.7478237 0.10364056
15.017298 3.6710622 3.629344 0.57133532
15.393009 3.6681244 3.667567 0.6001873
15.44182 3.6595469 3.7274628 0.11060899
15.628238 3.7833562 3.7382326 0.35203791
15.829809 3.7961602 3.6621146 1.0965002
16.135544 3.6352301 3.6990199 0.35214972
16.2313 3.6526837 3.7370393 0.10412121
16.422855 3.7914915 3.7863131 0.10412598
16.680428 3.6658483 3.6517465 0.5704689
16.892681 3.7052259 3.6367385 0.83295012
17.060558 3.6252806 3.7365179 0.11981516
17.221804 3.731101 3.7772207 0.1352717
17.464355 3.7292981 3.6334155 1.0961251
17.734573 3.684186 3.6781542 0.34996843
17.946774 3.6887732 3.7452111 0.10847483
18.035952 3.6272278 3.7540829 0.10460091
9.3479948 3.8426528 3.7349093 0.10169506
10.53767 3.8129439 3.7223821 0.1014595
10.912958 3.8313069 3.677856 0.10230446
11.310408 3.8204467 3.7082591 0.10200882
11.535666 3.8099174 3.6903775 0.10146713
11.727329 3.8183732 3.6788511 0.10229993
11.917192 3.8034008 3.6702738 0.10241118
12.143438 3.8128321 3.7152042 0.10249567
12.31938 3.8553832 3.6419835 0.10412389
12.473072 3.8194857 3.6472702 0.35106993
12.657511 3.8173542 3.7356458 0.10467824
12.857134 3.8736882 3.6535294 0.10339737
13.10115 3.8108544 3.7582593 0.10304165
13.358149 3.8941622 3.6454158 0.10364163
13.491245 3.845366 3.7053046 0.10317951
13.718231 3.8334434 3.7813449 0.10327604
13.964302 3.9197874 3.6433868 0.20561227
14.105216 3.8603015 3.7221074 0.11117933
14.28406 3.8147614 3.7682838 0.10535719
14.549126 3.8797448 3.6952574 0.13468498
14.699107 3.9359345 3.6747026 0.11188513
14.943901 3.8393373 3.7535584 0.11146548
15.142471 3.9007411 3.690913 0.13492179
15.322079 3.8895912 3.7273278 0.16594017
15.500138 3.8883405 3.7576919 0.16593301
15.69808 3.8578243 3.7341354 0.16604161
15.88302 3.9216084 3.7066255 0.104146
16.231119 3.9488521 3.6036448 1.0970001
16.500118 3.9360185 3.6046124 1.0970001
16.635067 3.9171882 3.6187873 1.0970001
16.860966 3.9101839 3.6204391 1.0970001
17.075396 3.8899698 3.6309023 1.0970001
17.24044 3.8920527 3.6289158 1.0969777
17.509586 3.9602442 3.7241664 0.22869003
17.74131 3.9622917 3.7604113 0.1666593
17.900642 3.8272552 3.7334695 0.10472111
18.003599 3.8494947 3.6761358 1.0970001
14.277877 4.0372181 3.6269002 0.10219479
16.188951 4.0587378 3.6184604 0.10508442
17.080221 4.0951757 3.6243517 0.10532665
17.767607 4.151844 3.7788966 0.10317039
17.8818 4.0037923 3.6542852 0.10490227
17.459385 3.4755306 3.8127179 0.044750214
14.38468 3.8676243 3.8095171 0.10340595
14.493093 3.8998768 3.8337252 0.10361481
15.069898 3.888092 3.8253195 0.10365009
15.2926 3.9481499 3.8662436 0.10385513
15.702553 3.8349509 3.8085561 0.10388851
16.478662 3.8264995 3.813026 0.1041286
16.617531 3.907222 3.8571239 0.10413647
17.347252 3.8204002 3.8188159 0.10437047
17.446884 3.8815575 3.859241 0.10437965
17.611345 3.9993484 3.898056 0.10437965
17.529505 4.1201773 3.9587641 0.10416698
17.663191 4.0129147 3.9110179 0.10437965
17.842316 4.0048532 3.84446 0.10441208
-1.6216173 -4.4949327 -2.8194189 1.0442288
-1.492602 -4.5844202 -2.8097641 1.0226117
-1.0270758 -4.587162 -2.8106689 0.79692966
-0.59885687 -4.5808125 -2.808295 0.9720037
-0.19200574 -4.5254068 -2.8103633 0.87194347
0.10538357 -4.5566549 -2.8078089 0.95034552
0.56511825 -4.4954753 -2.8095853 0.96195936
1.1219361 -4.5157499 -2.8112168 0.99817348
1.4990849 -4.508441 -2.8215013 0.35137185
1.9062979 -4.5202284 -2.8150322 0.89018863
2.1451969 -4.4744887 -2.8480439 0.55017221
2.6870365 -4.4567862 -2.8191051 0.86585224
2.9122658 -4.4577394 -2.8098893 0.56460202
3.3806078 -4.45155 -2.8126445 0.36891228
3.7953568 -4.4346647 -2.8527284 0.42577246
4.1117473 -4.4276867 -2.8610225 1.0437969
4.4717264 -4.4272761 -2.8966236 1.0439111
5.0886364 -4.432395 -2.8026476 0.61400205
5.4630232 -4.4468007 -2.8094091 1.0501251
5.724884 -4.4418936 -2.8076391 1.0497326
6.2441349 -4.4155955 -2.8462029 1.0379256
6.5858059 -4.4211326 -2.8257132 1.0448575
7.0174899 -4.4154062 -2.8360138 1.0275235
7.3372526 -4.4195466 -2.8176401 0.88083327
7.863389 -4.4432034 -2.8171673 0.054042995
8.185833 -4.4343548 -2.8111761 0.8292104
8.4204187 -4.4242678 -2.8133235 1.0705894
8.942358 -4.4097195 -2.8169701 1.0473866
9.3223963 -4.4365911 -2.8189123 0.087345056
9.8481827 -4.4233093 -2.8075254 0.64538628
10.162737 -4.4137545 -2.8061588 0.79850966
10.659466 -4.4349346 -2.8102846 0.055038311
10.9245 -4.4421129 -2.8231807 0.054189719
13.325991 -4.4025822 -2.8097074 0.051449299
13.664551 -4.4164009 -2.8111184 0.052401453
14.630615 -4.4059434 -2.8087122 0.55024028
15.320591 -4.4113836 -2.8024554 0.55321389
15.629455 -4.4066429 -2.800262 0.55339348
17.177937 -4.4129038 -2.8270152 0.059207447
17.508732 -4.4134674 -2.8178844 0.059323996
17.625402 -4.4301066 -2.8001287 0.055124998
-1.6609145 -4.3206911 -2.809001 1.0371644
-1.527334 -4.3515387 -2.818861 1.0416015
-0.95123732 -4.3439064 -2.8199863 1.0426719
-0.54154527 -4.3404703 -2.8243341 1.042927
2.5889077 -4.3190718 -2.8066905 0.30018747
3.0072174 -4.3229723 -2.819025 0.052499957
3.7769179 -4.3219624 -2.8042316 1.0446875
4.047267 -4.3448725 -2.8038349 1.0358901
4.6772261 -4.310998 -2.8089578 0.30018839
4.94525 -4.385139 -2.8258846 0.74443752
5.323205 -4.352685 -2.8078256 0.54874992
5.7192984 -4.3884096 -2.8507681 1.0459999
6.1481304 -4.3304119 -2.8207021 0.55081248
6.4890652 -4.3288617 -2.8373704 1.0454062
7.1747999 -4.378417 -2.8631384 1.0454688
7.4417353 -4.371089 -2.8544307 1.0429883
7.8313503 -4.3674002 -2.8413448 1.0375195
8.1380548 -4.306602 -2.8296843 1.0470071
8.5509539 -4.2568188 -2.82301 1.0494672
8.9951143 -4.333847 -2.8223276 1.0489269
9.4063349 -4.2830992 -2.8409431 1.0463344
9.9051132 -4.2896118 -2.8587637 1.0467194
10.309966 -4.2951355 -2.8586729 1.0614951
10.575313 -4.2302418 -2.8504071 1.0793164
11.026346 -4.2531595 -2.89714 1.0616826
11.266223 -4.1320696 -2.9998069 1.1121252
11.678725 -4.0820861 -2.9688194 1.1126559
12.168776 -4.136251 -2.9108751 1.1107657
12.613352 -4.0462255 -2.9497883 1.1125665
12.950706 -4.2138195 -2.8161111 1.1074142
13.262201 -4.2535887 -2.8598664 0.96284115
13.855133 -4.1068993 -2.9412522 1.0760869
14.305098 -4.1971397 -2.8201094 1.0903125
14.583927 -4.1572223 -2.824147 1.1058509
15.036168 -4.2368002 -2.8319793 1.1048478
15.489735 -4.2482977 -2.8279643 1.1046848
15.710682 -4.2340913 -2.8257859 1.1041216
16.045887 -4.2570114 -2.8280683 1.0253859
16.597687 -4.3519859 -2.8452044 0.93914711
16.830959 -4.3349085 -2.8728561 1.0428381
17.381992 -4.3602901 -2.813303 0.86813438
17.700975 -4.3632574 -2.8227484 1.040947
18.005322 -4.3132534 -2.8262887 0.057935007
13.477376 -3.9898055 -2.9446118 1.1105
13.805238 -3.9812257 -3.0199964 1.11025
16.360535 -3.9843705 -2.9472034 1.108
-1.6240847 -4.8670402 -2.5155745 0.038889408
-1.3873007 -4.8202868 -2.4718239 0.38396341
-1.0575222 -4.810658 -2.434845 0.28204942
-0.49057463 -4.8105917 -2.4268458 0.31586322
-0.2230244 -4.8297687 -2.4285908 0.44671509
0.24937141 -4.8368425 -2.4787302 0.32719615
0.46398878 -4.8160105 -2.409761 0.084500536
0.93335474 -4.82026 -2.5089898 0.61825359
1.3498869 -4.8076186 -2.4896975 0.60592991
-1.6600738 -4.6191764 -2.4193351 1.0736859
-1.4361739 -4.6837649 -2.5756958 1.0726721
-0.98612392 -4.6488209 -2.6717429 1.0710261
-0.597063 -4.6273494 -2.7012789 1.0694996
-0.22469993 -4.6391153 -2.5932307 1.0679365
0.13624386 -4.6213088 -2.6805973 1.0663962
0.6154232 -4.6112199 -2.6615453 1.0642923
1.0515985 -4.6082621 -2.6612959 1.0624034
1.4205515 -4.57798 -2.7343454 1.0608853
1.7583747 -4.5766807 -2.691031 1.0595424
2.1506724 -4.5819335 -2.6029167 1.057963
2.554939 -4.5670023 -2.6562753 1.0566435
3.1544325 -4.5704188 -2.5947864 0.64692038
3.4536448 -4.5624509 -2.5906212 0.59849119
3.7190721 -4.4939618 -2.653652 0.53868204
4.181551 -4.4990335 -2.6595068 0.55078304
4.6365795 -4.5346107 -2.5757639 0.52354366
4.9016886 -4.489377 -2.6716287 0.59307796
5.3835907 -4.5374789 -2.5440681 0.5855999
5.7054596 -4.436656 -2.7894011 0.92482942
6.1963391 -4.4759903 -2.6399591 0.65112543
6.647634 -4.4615598 -2.6523111 0.6319167
7.0211511 -4.4794621 -2.6074197 0.76252937
7.5272799 -4.471015 -2.631824 1.0450978
7.9507923 -4.429822 -2.7027135 1.0472397
8.2582073 -4.4290023 -2.692596 1.0470011
8.5852947 -4.4263563 -2.6807508 1.046741
9.0096817 -4.4860902 -2.5094419 1.0463748
9.2998104 -4.4167957 -2.6532993 1.0462492
9.7394238 -4.4273343 -2.6028457 1.0433726
10.139502 -4.4698491 -2.4381475 0.99244773
10.500051 -4.4269724 -2.5147452 1.0124254
10.920818 -4.4157543 -2.523596 0.98038721
11.391047 -4.4344721 -2.4335904 0.80227059
11.773671 -4.415875 -2.4538445 0.92701888
12.119318 -4.4177055 -2.4346929 0.80143964
12.543756 -4.4029856 -2.4470859 0.568802
12.826344 -4.4125118 -2.4281888 0.10685118
13.288955 -4.4108734 -2.4871178 0.62507713
13.738463 -4.4213934 -2.4349861 0.519189
14.095781 -4.4330549 -2.4754195 0.37970001
14.539906 -4.4318943 -2.5029824 0.60809481
14.9587 -4.4157414 -2.464886 0.95167875
15.564678 -4.4477491 -2.4211125 0.13440873
15.73303 -4.4424767 -2.4397562 0.098741315
16.154564 -4.4253478 -2.4303577 0.61195993
16.529434 -4.4365196 -2.4163866 0.42934611
17.085396 -4.4110589 -2.4888382 0.75303626
17.480803 -4.4100423 -2.4498844 0.64623159
17.88744 -4.4054985 -2.5411265 0.22082578
18.025787 -4.4424419 -2.4633796 0.59152341
-1.6592873 -4.2397704 -2.5709808 1.074326
-1.2526677 -4.0502472 -2.5873024 1.0682648
-0.95537388 -4.0543799 -2.6078773 1.0719374
-0.6417743 -4.2669449 -2.7019281 1.0701876
-0.059338182 -4.1334548 -2.6549511 1.0676789
0.28449476 -4.3352995 -2.7426081 1.065923
0.68000883 -4.0566201 -2.6308503 1.0627474
0.90920532 -4.1125631 -2.6591334 1.0628932
1.3435606 -4.236258 -2.7157898 1.0609837
1.827983 -4.2209654 -2.7165413 1.0589375
2.1170774 -4.3227744 -2.7632945 1.0579998
2.6125453 -4.157186 -2.6974277 1.0559052
2.9963443 -4.0602098 -2.6673439 1.054427
3.3322537 -4.207716 -2.7327881 1.0538752
3.6828327 -4.3945756 -2.78073 0.5539484
4.0780678 -4.3504214 -2.7949545 0.9284606
4.4969091 -4.1898451 -2.6135719 0.54224265
5.0070729 -4.2107081 -2.6227119 0.54345095
5.5339475 -4.3068562 -2.7210741 0.30729997
5.7115965 -4.3956127 -2.7520866 0.050197653
6.1096973 -4.2765927 -2.686362 0.56170285
6.5819311 -4.2963142 -2.6425624 0.080180213
6.9624004 -4.2784386 -2.6642349 0.080089331
7.3023162 -4.3814001 -2.7393799 0.048001789
7.8598795 -4.3481178 -2.7499118 0.93175101
8.2251902 -4.3555641 -2.705384 0.43821982
8.5326042 -4.3963356 -2.7165656 0.92299414
8.9233465 -4.3683472 -2.724658 0.92203403
9.3943634 -4.3691044 -2.6535733 0.46449113
9.8488102 -4.3540382 -2.6931007 1.0558259
10.186272 -4.3378425 -2.7123549 1.0519302
10.569539 -4.3472109 -2.6603198 1.0180341
11.030388 -4.3313708 -2.700819 1.0304401
11.339378 -4.3294539 -2.6505871 0.54470754
11.850889 -4.3105049 -2.6365952 0.54031855
12.252792 -4.3567162 -2.4493909 0.45910925
12.504406 -4.3668566 -2.5116725 0.99085093
13.047846 -4.3316574 -2.4559102 0.56876421
13.324606 -4.323823 -2.4528508 0.56744671
13.876675 -4.3387661 -2.4417615 0.56742126
