# .PCD v0.7 - Point Cloud Data file format
VERSION 0.7
FIELDS x y z
SIZE 4 4 4
TYPE F F F
COUNT 1 1 1
WIDTH 703
HEIGHT 1
VIEWPOINT 0 0 0 1 0 0 0
POINTS 703
DATA ascii
12.115603 -16.980333 -1.4450842
9.9023085 -11.042357 -0.8473534
9.9512377 -10.6597 -0.80567557
10.358446 -10.833896 -0.81276137
10.300505 -10.667403 -0.7973581
10.642086 -10.684128 -0.79103822
10.261203 -11.747967 -0.36779279
9.7891769 -11.092484 -0.34048128
10.107589 -11.143256 -0.32733265
9.9703264 -10.972788 -0.32102889
10.125497 -10.970061 -0.31268814
8.0623064 -8.9499636 -1.101897
6.3451409 -12.730032 -0.75954503
5.895391 -12.294238 -0.75564384
5.2657471 -11.729956 -0.75657338
5.5197806 -11.933615 -0.75328052
10.105025 -11.741479 0.1633611
5.9286556 -7.2814808 -0.89822423
6.1563997 -7.232604 -0.88815635
5.0458531 -11.530613 -0.75702983
5.2016144 -11.748509 -0.53825414
4.8289137 -11.326419 -0.75685769
9.218854 -11.887998 0.081227496
9.3931723 -11.701092 0.10741129
9.5691891 -11.500564 0.13376404
9.9921932 -11.494982 0.16814463
10.049088 -11.3248 0.18203831
7.6521502 -9.0637922 -0.2938512
5.5806546 -7.5818582 -0.62070274
5.8756618 -7.6242042 -0.61244589
6.0148253 -7.6185694 -0.6058287
5.619524 -7.2560277 -0.79494828
5.7844005 -7.2978792 -0.65915471
6.178709 -7.2178345 -0.55455279
5.8939443 -7.0329199 -0.70403236
6.1613545 -7.1638937 -0.54926294
4.9182553 -11.554974 -0.33517301
5.1187134 -11.751691 -0.3271479
4.7473736 -11.401308 -0.34331065
9.1490049 -11.925529 0.59651238
9.3201656 -11.744523 0.62100983
9.4892139 -11.546567 0.64521843
0.34587657 -7.2458692 -1.1172926
0.49599007 -7.3818383 -1.1137404
4.7508116 -7.8739595 -0.38447243
5.0873046 -7.5213866 -0.32296929
5.7136173 -7.6330395 -0.28939083
-0.66553909 -6.2371016 -1.3721024
-0.44909358 -6.4123321 -1.3610573
5.4382014 -7.3114476 -0.27893177
5.796845 -7.331099 -0.25717661
5.5849314 -7.0706468 -0.40312365
5.6199756 -7.069273 -0.24511613
4.5373778 -6.1667781 -0.49961036
4.0275564 -5.812284 -0.72781265
4.3882732 -5.9306355 -0.73486102
3.6778903 -5.3649235 -0.67010164
6.7845855 -5.3052859 -0.06687808
6.8046269 -5.2356782 -0.21206465
5.7758374 -4.1657543 -0.53125829
0.4956865 -7.6100421 -0.88310164
-0.036421295 -7.1198149 -0.91507244
0.19033276 -7.2733903 -0.95666689
0.374125 -7.4949355 -0.88937449
5.9198604 -7.9933548 0.036681071
-0.39613155 -6.789947 -0.94151843
-0.17938094 -6.8813372 -1.0319333
0.18091102 -7.0943141 -1.1217169
4.9584637 -7.6549606 -0.029792178
5.2648702 -7.5043092 0.0092386538
5.6835346 -7.6846809 0.035302233
-0.74111921 -6.2393913 -1.1633883
-0.5566957 -6.4481826 -1.0436748
-0.3114118 -6.6493526 -1.1416148
5.2428312 -7.410471 0.013455836
5.7541223 -7.3994694 0.059166122
-1.1498548 -5.8343916 -1.2756848
-0.85771751 -6.0329957 -1.3006403
-0.39569008 -6.0575223 -1.2763914
-1.4928632 -5.496048 -1.374922
-1.3114198 -5.6699748 -1.3077623
3.6063039 -6.0478444 -0.41375411
3.757632 -6.101675 -0.28571898
4.4997663 -6.211504 -0.24108076
0.080647893 -5.3526745 -1.0356553
0.27545393 -5.3363028 -0.99643523
3.6672013 -5.8547606 -0.42714465
3.9755223 -5.8340945 -0.32426971
4.1887078 -5.9405994 -0.23747991
3.5281115 -5.2669172 -0.43999502
6.7266445 -5.3416615 0.22710158
6.5068264 -5.0242543 0.03474104
5.6303277 -4.2909899 -0.047172483
4.3502331 -2.9372981 -0.37932977
4.5914121 -3.2366898 -0.31504619
4.2223096 -2.7781231 -0.36214423
0.20348828 -7.540164 -0.39942923
0.38664895 -7.6630287 -0.50696236
-0.23644416 -7.1038122 -0.53728449
0.038729098 -7.3395724 -0.54518181
0.3023943 -7.531764 -0.64318997
5.6075912 -7.9590249 0.68706125
-0.48576638 -6.7629709 -0.59792262
-0.33341447 -6.9833031 -0.62836599
4.9484682 -7.6488552 0.28545034
5.2296472 -7.5661864 0.42870831
5.501368 -7.7643595 0.42614585
-0.89861238 -6.230783 -0.82563823
-0.67396104 -6.4483829 -0.77073467
-1.6504525 -5.6867962 -0.86884594
-1.2651484 -5.8722382 -0.90339386
-1.0428224 -6.0850368 -0.877325
-1.5212926 -5.6398206 -0.937217
-1.4497987 -5.6765666 -1.0282553
3.6000066 -6.1517477 -0.05776291
3.6910305 -6.1814561 -0.050689112
3.8134458 -5.9976606 -0.025551269
-3.5703142 -3.9771693 -1.2580358
6.6617203 -5.4014525 0.51900136
1.763647 -4.1290197 -0.41014349
6.4214501 -5.1174936 0.50173116
0.34226635 -3.8255446 -0.60838765
0.45040038 -3.7038538 -0.56832683
1.4208448 -3.7940452 -0.47298145
1.7860869 -3.9701827 -0.4753319
5.5940657 -4.3272414 0.31702015
0.69699204 -3.4318254 -0.54305488
1.0476649 -3.4594338 -0.47396877
1.2182724 -3.6169026 -0.45324111
1.8399206 -3.5225234 -0.39324328
2.1030042 -3.5891747 -0.45102304
5.6672282 -4.2470536 0.20108917
1.9849446 -3.3185868 -0.41217405
4.5185099 -3.3308496 0.067234755
4.2756262 -2.9936974 0.0095633958
4.5139279 -3.2576351 0.069589108
4.236465 -2.8385394 -0.19073169
3.3095427 -1.9425128 -0.26496464
3.512362 -2.1653621 -0.21754761
2.9229825 -1.533664 -0.22309719
3.1413195 -1.8032951 -0.18579602
-2.6101441 0.94289583 -1.3653053
-2.7199178 1.1284639 -1.4497485
-2.5554805 1.5188024 -1.4581254
-2.3602717 1.7157006 -1.4204493
3.7541969 0.83321398 -0.40057501
3.9810977 0.70735008 -0.36458015
-2.1678538 1.9194552 -1.3939533
2.7810674 1.2703904 -0.41129333
3.4863906 1.1794116 -0.40111935
3.6067584 1.0024002 -0.41502562
4.134604 1.0487382 -0.33195949
4.4652038 0.92669827 -0.29953361
4.696362 0.73361325 -0.28590733
5.2000847 0.87945765 -0.13383506
-1.955478 2.1370726 -1.369453
-1.8140218 2.2821026 -1.3585525
2.2313805 1.8423548 -0.51965493
2.7948689 1.7929186 -0.51951748
3.0041234 1.6198918 -0.49080393
3.4067214 1.3610096 -0.46088886
4.091845 1.2392755 -0.32676056
4.5763984 1.3273278 -0.18287358
4.8764749 1.1913128 -0.16670425
-1.5665953 2.520005 -1.3423395
-1.3125899 2.4924958 -1.2495924
1.9121332 2.2663429 -0.63443184
2.1824 2.0377614 -0.56966829
2.6492102 2.0461812 -0.50952387
2.9790583 1.9852972 -0.43384781
3.3966286 1.9697891 -0.35669622
5.0836039 1.7161225 -0.039280623
5.2260208 1.6321456 -0.024447924
3.4581885 2.1452155 -0.3161324
0.10603262 -7.5500894 -0.1560832
0.27016795 -7.706512 -0.13009197
-0.33324051 -7.1383038 -0.22756058
-0.044806466 -7.4072018 -0.18031618
4.6590238 -7.9307747 0.6872732
-0.642941 -6.6336794 -0.35105306
-0.4881967 -6.9841957 -0.25310674
5.0589957 -7.5886774 0.80838686
-0.99321854 -6.2895694 -0.44484517
-0.73444408 -6.5210338 -0.44073936
-1.5663055 -5.6835222 -0.64242101
-1.3754975 -5.9222379 -0.5293622
-1.1601678 -6.0873656 -0.57806981
-3.5305955 -4.1647611 -0.86561352
-3.7534697 -3.8823421 -0.98475337
-3.6136761 -3.9943893 -1.0133456
6.5756249 -5.4684644 0.95856106
-3.8760831 -3.5720782 -0.99993265
0.25386772 -3.9112804 -0.30245784
0.29056796 -3.8706751 -0.29212889
0.49300617 -3.6487346 -0.28199109
1.0950413 -3.6214249 -0.14513257
1.3086796 -3.820159 -0.13397013
1.5063623 -4.0057955 -0.12453751
0.7117452 -3.4101257 -0.27826729
0.92188275 -3.439832 -0.22894554
1.8669246 -3.5364356 -0.1806567
4.3282404 -3.2686536 0.53131974
4.4411721 -3.3854723 0.44829381
4.1688414 -3.0159903 0.37641671
3.3499823 -2.3306341 0.19808137
3.1034656 -1.8787839 0.12340087
3.4648628 -2.2354538 0.17121269
2.8739629 -1.5742626 0.042105697
3.1022155 -1.81425 0.062524788
2.2469327 -0.98410249 -0.078540489
2.4601135 -1.1873274 -0.033434577
2.7109535 -1.3780823 -0.15185703
-2.7206869 0.10994044 -0.96645999
-2.6640887 0.15002751 -1.0023535
1.8359625 -0.61144727 -0.097623602
2.1145465 -0.86053848 -0.084562659
-2.4582589 0.37164158 -1.0429479
1.6541096 -0.44538167 -0.11986112
-2.6555786 0.90433455 -1.1644464
-2.438545 0.67279238 -1.0838118
-2.9516306 1.1593939 -1.0379208
-2.8063431 1.1774737 -1.1980672
3.2994571 0.52457821 0.15287471
3.3951244 0.476868 0.16308044
-2.5933969 1.5100772 -1.2177242
-2.4006991 1.707249 -1.1847022
-0.36547127 1.390511 -0.58767176
0.91304022 1.1174815 -0.33811352
2.7337294 0.98787707 -0.14445148
3.7575021 0.80479169 -0.051657256
3.9369459 0.66045123 0.0098153371
-2.1984582 1.9145228 -1.1564091
-0.85793114 1.9267981 -0.74447185
-0.67112106 1.7393037 -0.74660063
-0.4657349 1.5097201 -0.6412487
2.1662059 1.4760274 -0.18315905
2.5247307 1.2251683 -0.19663776
2.6678066 1.0407634 -0.15252288
3.3960562 1.1898134 -0.10277494
3.6780474 0.93282783 0.0023448195
-1.9939399 2.127414 -1.133013
-1.7991241 2.3235102 -1.1153158
-1.193372 2.3241725 -0.99072307
-1.0140915 2.1232076 -0.90221632
-0.80270869 1.9176047 -0.90692592
1.8950012 1.7402842 -0.22886249
2.1150737 1.6586179 -0.32395524
2.3690782 1.5640026 -0.29637435
-1.5528246 2.5629153 -1.1217628
-1.3460263 2.4880886 -1.0579491
2.1425469 1.9138511 -0.53711545
3.5170856 1.938439 -0.060627058
2.020493 2.4874847 -0.56914407
2.5799963 2.5852947 -0.43321452
3.3761013 2.1837358 -0.32491904
3.8409572 2.3507266 -0.17807822
2.3753986 2.860611 -0.39483812
2.7275612 2.9317942 -0.34829864
3.7501795 2.4818437 -0.20297757
4.2671738 2.6177154 -0.014399537
0.22156972 -7.5576725 0.1265602
-0.40329325 -7.0500197 0.0055532004
-0.088032268 -7.2930465 0.06683851
0.141331 -7.4832492 0.11110652
-0.73326129 -6.6996088 0.056109302
-0.45079127 -6.881115 0.15265056
-0.024015913 -6.8923626 0.31290308
0.201848 -6.9646659 0.35792071
-1.3510147 -6.1093106 -0.078612588
-1.1367452 -6.3175988 -0.0092210285
-0.91804039 -6.5156488 0.015907928
-1.4476854 -5.9898462 -0.13579173
-3.539288 -4.2541885 -0.52921879
-3.8653543 -3.829895 -0.64337504
-3.6852911 -4.0648389 -0.61481506
-4.0951967 -3.4472263 -0.82040089
-3.942822 -3.6021025 -0.71847135
0.19008058 -3.9600556 0.085279144
0.2480668 -3.8960698 0.094843693
1.3606457 -4.0428152 0.36176756
1.3994035 -4.0862813 0.36997819
5.8519511 -4.9376392 1.2600836
0.44159475 -3.6795843 0.12703355
0.93706 -3.6250863 0.24340916
1.1839716 -3.84916 0.25686052
1.4446158 -4.0477071 0.15643643
0.66784829 -3.4379725 0.10615642
0.80536115 -3.4637201 0.11689208
4.3585887 -3.4333453 0.82821751
4.0921984 -3.094795 0.75448799
3.3107288 -2.358551 0.54786587
3.0228274 -1.9030069 0.49118802
3.3951049 -2.2770383 0.55673075
2.5389922 -1.4093862 0.40546179
2.7613111 -1.5952289 0.38218495
2.911387 -1.7974958 0.59245479
-0.38739854 -0.57993591 -0.12901318
2.1123588 -0.97889715 0.27755544
2.3567009 -1.2055372 0.29623935
-2.8213239 0.019140797 -0.69302016
-2.7062604 0.13143834 -0.70696121
-0.41472363 -0.53093052 -0.13966392
1.1233182 -0.36467648 0.16773263
1.1813569 -0.3840749 0.099931546
1.7500607 -0.60950142 0.15331936
1.9807471 -0.82389235 0.17478231
-2.49839 0.36915541 -0.66712987
1.0265629 -0.12849288 0.047463953
1.1785703 -0.31523827 0.062564552
-2.7724104 0.87200475 -0.76901144
-2.5251443 0.62489903 -0.73080283
0.34275195 0.55010718 -0.09132953
-3.0047731 1.1040723 -0.80349457
-2.8435876 1.2427466 -0.81323838
0.0097871935 0.90366209 -0.20455255
0.27515993 0.65938729 -0.14172773
0.61548078 0.75898373 -0.11673237
-2.6029358 1.5322925 -0.82590979
-2.449542 1.6919944 -0.78551877
-0.61414599 1.4682852 -0.23783094
-0.34124443 1.2931762 -0.35689262
-0.14758982 1.0793271 -0.28436783
0.85031289 1.0660971 -0.12464521
0.98869842 1.2424986 0.041805081
2.5104854 1.0069748 0.09995345
2.7410288 0.85808474 0.10856198
3.0368109 0.69903499 0.11969641
3.6011527 0.87273008 0.27367333
3.9880643 0.63152605 0.36884531
4.1087461 0.62696272 0.49413577
4.9547153 0.70929837 0.78148282
-2.2408597 1.9065479 -0.75886691
-2.0569687 2.0952439 -0.62387943
-0.93105346 1.9050586 -0.49977982
-0.73044091 1.690351 -0.43746468
-0.52192169 1.4996924 -0.44850826
1.7880213 1.5480202 0.18834858
2.006839 1.4216007 0.12832429
2.3963127 1.2088603 0.1163512
3.2859559 1.1317003 0.28206649
3.4541512 0.93956053 0.25307298
4.1756902 1.2145033 0.45815799
4.3536682 1.1716942 0.48537156
4.8482466 0.77925253 0.75900966
5.0795097 0.77745187 0.79785794
5.4838238 0.99552029 0.85105062
5.7115612 0.81487232 0.90120161
-2.0335567 2.1141076 -0.84678197
-1.8469036 2.3073254 -0.7135874
-1.3623991 2.3422477 -0.57218331
-1.0929344 2.0804672 -0.55366421
1.8012223 1.7651114 0.022538694
1.9693435 1.6879253 -0.0041936128
2.5051391 1.6412984 0.087147333
2.8609228 1.6270344 0.24376968
3.2943258 1.4867141 0.31619266
3.4591117 1.4718562 0.34003612
4.0338821 1.453495 0.49923703
4.1967316 1.4479604 0.60418576
5.3027916 1.2770858 0.70248646
5.4327459 1.1182675 0.73333693
-1.6298897 2.5035336 -0.68868822
-1.483271 2.4926081 -0.68650812
1.4908413 2.0629311 0.00037840646
1.7460939 2.1044476 0.072872445
2.116291 2.2838984 0.18904865
3.3074036 2.0963957 0.40749124
3.6646914 1.9511808 0.47871503
3.9506972 1.6831698 0.54622859
5.3757257 1.4996327 0.79883838
5.5127921 1.6742573 0.80988383
5.5310044 1.856032 0.80041397
2.4224713 2.8454883 -0.078746833
4.9577141 2.4197686 0.66410094
-1.3748897 -5.7527843 0.21176785
-1.1034526 -5.788415 0.26395425
-0.71429867 -5.8434649 0.33949137
-0.32485342 -5.8914847 0.41501078
0.030252378 -5.9487729 0.48538414
2.4072688 -6.2039113 0.9556731
2.8259516 -6.2620916 1.0410159
2.8098829 -6.2360759 1.0358311
3.1884434 -6.2863421 1.1131072
3.5815513 -6.3331227 1.1931825
-1.3111506 -5.0735707 0.34850723
-1.0858079 -5.0986824 0.3906157
-0.60497713 -5.1597257 0.48304448
-0.25766647 -5.22088 0.55343986
-0.0045422204 -5.2484379 0.60353202
1.842851 -5.3854399 0.98202533
2.1006918 -5.4025259 1.0371481
2.481545 -5.4183731 1.1183738
-3.5582042 -4.2307458 -0.24831004
-3.3863282 -4.370048 -0.14134508
-1.2259026 -4.5270395 0.46131176
-0.97414577 -4.5818501 0.51147902
-0.58465338 -4.6377139 0.58720028
-0.19023708 -4.6748061 0.66413003
2.6587579 -5.4075708 1.1544797
2.8988938 -5.4209161 1.2069601
3.2879634 -5.4202995 1.2902857
3.6730211 -5.4221978 1.3739333
4.1149387 -5.4269218 1.4712003
-3.8851659 -3.8604522 -0.31692502
-3.7047505 -4.0476799 -0.20925507
0.096835159 -4.018085 0.50693482
0.19692774 -3.9099345 0.48561859
1.2340475 -4.0511484 0.70613062
1.3280833 -4.1269236 0.65799838
0.40458414 -3.6862612 0.49910855
0.83834088 -3.6563361 0.59758896
1.0737615 -3.8753204 0.61346751
0.60950869 -3.467648 0.45285684
0.66094428 -3.4764326 0.52463341
4.0940623 -3.3110604 1.159405
4.2824273 -3.5118892 1.2147715
3.655597 -2.9145885 1.1140046
4.0397282 -3.1260912 1.0376675
-4.3541007 -1.5308579 -0.30735838
-4.1978903 -1.3727947 -0.30569127
3.2106807 -2.4240482 0.99517369
-3.9111526 -1.0791967 -0.35749015
-3.7501547 -0.91442937 -0.36654106
2.8071916 -1.8291672 0.93985415
2.92553 -1.925693 0.85332924
3.3256974 -2.2657819 0.8315621
-3.5386097 -0.70142573 -0.35829729
2.3804433 -1.4012895 0.75921243
2.6448879 -1.6490825 0.80853063
-3.3323414 -0.48688504 -0.35003382
-3.1243448 -0.27466753 -0.32484674
-0.4526816 -0.54673386 0.086368062
1.763203 -0.84617305 0.74554729
2.0107756 -1.0299934 0.6433171
2.2287052 -1.2421188 0.69008642
-2.893245 -0.044083342 -0.36177698
-2.7725878 0.076722607 -0.28896782
-0.42225936 -0.52887565 0.072959103
1.0743861 -0.38480774 0.39550546
1.099429 -0.39561135 0.40479025
1.6242099 -0.64505714 0.54691213
1.8362362 -0.83556068 0.53968674
-2.5591948 0.37860215 -0.2879726
0.95130163 -0.14156069 0.33507162
1.1137701 -0.33439505 0.35800391
-2.889756 0.85339344 -0.3857829
-2.6802509 0.63707542 -0.33778664
0.24323843 0.55658573 0.13068752
0.42022625 0.55505615 0.28613344
-2.8753526 1.2600356 -0.38442716
-0.31992266 1.0639482 0.1701192
-0.07218799 0.87143064 0.085772954
0.26756772 0.61397594 0.14549056
0.55039167 0.72047031 0.19915712
-2.6681557 1.4771687 -0.36518019
-2.5137286 1.6376958 -0.33138448
-0.69988954 1.4609234 -0.0016350755
-0.48466083 1.2638432 0.044837177
-0.26114142 1.0719831 0.0069421995
0.75728804 1.0039442 0.28448671
4.8345451 0.71381015 0.94017589
4.9723873 0.64863658 1.0339274
-2.2804432 1.8726975 -0.37734148
-2.0861001 2.0731564 -0.29993188
-1.1080834 1.8811491 -0.082933322
-0.85504627 1.6412938 -0.085121304
4.8075085 0.89009219 1.0450889
4.9616356 0.78486288 1.0230415
5.336731 0.86954474 1.1328647
-1.8782027 2.2824469 -0.27256894
-1.4600209 2.2810042 -0.22494535
-1.2289259 2.0542891 -0.20268673
4.0996675 1.5850114 0.74036634
4.1786585 1.4802172 0.7622683
5.2173095 1.2971431 1.0826225
5.3109894 1.2947137 1.1044214
-1.6615964 2.4807007 -0.35290414
-1.6358398 2.4816561 -0.29304501
3.4600043 2.1394172 0.58109659
3.6431737 1.9732763 0.6268577
3.9747384 1.6880846 0.70934939
5.3370433 1.8656403 1.184124
5.4446821 1.6725482 1.1125855
3.430136 2.1745651 0.64928865
3.4507856 2.1681073 0.73022252
4.9647851 2.2844973 0.97674924
5.1541934 2.067368 1.1321151
2.549871 2.9038429 0.41982469
4.5634341 2.6637452 0.97039336
4.8633137 2.4150515 0.94817567
3.9751546 3.26104 0.81576937
4.1924863 3.0850604 0.7736479
4.3759208 2.9084735 0.82058209
3.642555 3.679966 0.63310397
3.8357248 3.4899352 0.70062447
3.5515885 3.8021235 0.70621032
4.2431674 3.9083502 0.64466667
-3.6632211 -3.9392433 0.034230236
-3.2800143 -4.0394721 0.095457077
-3.0641658 -4.1010084 0.1315438
-1.1818463 -4.0965419 0.55078918
-0.93745762 -4.1397862 0.59742248
-0.55123001 -4.2042618 0.67409235
-0.17202495 -4.2496996 0.75071424
1.5487548 -4.7799554 1.0309581
1.7553203 -4.77106 1.0750573
2.1719329 -4.8082166 1.1738842
2.5542941 -4.7451224 1.2527972
2.9430635 -4.7354178 1.3428693
3.3394566 -4.7528 1.4402407
-3.1695209 -3.5431869 0.2076125
-2.852324 -3.6506712 0.25776401
-2.6399951 -3.7379546 0.29526153
-1.1398715 -3.7222319 0.62279636
-0.89202338 -3.7715213 0.67059082
-0.50554687 -3.8272212 0.74578369
-0.030738138 -3.9606953 0.79080594
0.16066241 -3.9125941 0.81913245
1.109892 -4.0393424 0.9752844
1.4389142 -4.2887726 1.0967317
1.8208957 -4.2683468 1.183993
2.2133331 -4.2286973 1.2741848
2.5997009 -4.2154598 1.3707938
3.4727671 -4.6931081 1.4645109
3.7392201 -4.6680474 1.5264697
4.1153359 -4.6615801 1.6187854
-2.8168995 -3.2145531 0.3385922
-2.4136565 -3.2374997 0.44393477
-2.1388969 -3.1391301 0.51333934
-1.1109974 -3.428407 0.68799311
-0.84256697 -3.4795489 0.73857278
-0.48188871 -3.5336943 0.80950642
-0.095146351 -3.5859663 0.89298332
0.3357338 -3.6689718 0.86951059
0.7505517 -3.6701496 0.94593966
1.0444388 -3.7642713 1.0769701
1.4601227 -3.8611839 1.1751468
1.8001963 -3.8271976 1.256688
2.2466543 -3.7693019 1.3668594
2.6980352 -4.1723127 1.3890104
3.0211544 -4.1332889 1.4682323
3.3928227 -4.070188 1.5587038
3.7991743 -4.0068812 1.6613578
-2.6016769 -2.9473464 0.44126183
-2.3732982 -2.9374051 0.49395463
-2.0061688 -2.9038217 0.59239644
-1.4100325 -2.8465226 0.73031384
-1.0853237 -3.0463791 0.76322693
-0.8234452 -3.0980282 0.81150174
-0.44229904 -3.1599131 0.88762939
-0.042357139 -3.1795695 0.9672966
0.31239349 -3.2262509 1.0384858
0.68340176 -3.3399177 1.0268774
1.1529772 -3.3398526 1.2023463
1.4467009 -3.4032531 1.2561066
1.8706144 -3.4387772 1.3432741
2.3102064 -3.5463769 1.4171458
2.6681225 -3.6759779 1.4695097
3.032423 -3.5930421 1.5622294
3.3772657 -3.5130546 1.6529949
4.2010121 -3.8139665 1.7463224
-4.7746801 -1.9323478 0.041884553
3.4778209 -3.4791105 1.6781932
3.9613891 -3.3001363 1.5265305
4.2009854 -3.5636072 1.6068203
-4.5409136 -1.7144834 -0.12044379
3.6254771 -3.0026808 1.5359182
3.8137693 -3.109098 1.3495635
-4.3582096 -1.5217458 -0.069970578
-4.1516099 -1.3114324 -0.0501916
-3.9255559 -1.0796052 -0.051053576
-3.7881727 -0.93536043 -0.033458758
2.6813145 -1.8197973 1.2141031
2.8807514 -2.0113311 1.2214689
-3.5577636 -0.69894463 -0.0035934509
-3.379986 -0.5176481 0.059033036
2.2905514 -1.4455436 1.127076
2.5632122 -1.6921965 1.1511823
-3.3661232 -0.50632447 -0.17619778
-3.1822891 -0.31236225 0.040029261
1.720521 -0.84571272 0.88555658
1.9132676 -1.0446 0.95762855
2.112642 -1.253131 1.0252465
-2.9681256 -0.092627764 0.076863289
-2.7952516 0.080696508 0.082428813
1.5768697 -0.67857385 0.80368632
-2.8679507 0.62836444 0.15498009
-2.6416302 0.39577961 0.027937636
-3.0149288 0.85072887 -0.00096555613
-2.7726748 0.63723987 -0.099076442
-2.9130228 1.2470914 0.005938367
-2.725374 1.4507881 0.01462796
-2.5072601 1.6683737 0.052215301
-0.83939093 1.5109069 0.21443813
-0.6250425 1.3196924 0.23135376
5.5463214 0.65221488 1.7199667
-2.316222 1.8672295 0.0921738
-2.1518884 2.0352805 0.15526968
-1.439099 2.0529079 0.30429494
-1.1900338 1.8537014 0.20969002
-0.98887825 1.6720774 0.19062856
5.1039867 0.9615609 1.4190978
5.3554564 0.87249053 1.5113539
5.5515561 0.70066816 1.6115947
-1.9195896 2.2603753 0.10208444
-1.5856638 2.2454443 0.17980334
5.1512475 1.2740322 1.4696335
5.2818103 1.4509486 1.5017774
5.2482681 1.843716 1.4795349
5.37536 1.6653688 1.5218221
4.8314877 2.2688341 1.3711189
5.082684 2.0426261 1.4061077
4.1935878 2.8537099 1.2627718
4.4685774 2.6610663 1.2431327
4.6842399 2.436599 1.3060203
3.8837261 3.2565608 1.081476
4.0824022 3.0497622 1.1349559
4.2958956 2.8666303 1.1937829
3.4657886 3.7241676 1.0080061
3.7512043 3.5055082 1.0628289
3.4064245 3.8988779 0.93014479
3.656472 3.8552084 0.92707157
-1.9764423 -2.7537396 0.67361766
-1.5966086 -2.807251 0.70734328
-0.27925912 -3.1408937 0.96898252
-0.23151718 -3.1300094 0.97396928
0.38109633 -3.0676494 1.0840777
0.63811064 -3.0972874 1.1595687
1.3307977 -3.2166531 1.2659677
1.3968794 -3.2019539 1.2817054
2.3783679 -3.3382595 1.476277
-2.2298408 -2.4991508 0.59877878
-1.9418508 -2.656898 0.64795142
-1.7512851 -2.7147074 0.67073131
0.52286661 -3.0535927 1.1147147
0.77079976 -3.0396099 1.1772746
1.1810741 -2.9693041 1.2765411
1.5672098 -3.0355508 1.3543248
1.907207 -3.0180473 1.4287224
2.357254 -3.0793684 1.5109912
2.7585158 -3.2159293 1.5734967
3.1109314 -3.1058855 1.6695819
3.5908771 -3.4508247 1.7086552
3.8443046 -3.3435786 1.7706196
-4.5969353 -1.7468545 0.19573629
-4.2509985 -1.6566741 0.34192657
2.0439484 -2.7318704 1.5067806
2.4117386 -2.7027552 1.589568
2.7677853 -2.8032436 1.6483955
3.1525505 -2.8743472 1.7192842
3.4133542 -3.0001585 1.7535378
-4.4036894 -1.542147 0.17025146
-4.2014375 -1.3508631 0.26091138
-3.9601634 -1.4282026 0.44656232
2.5642748 -2.5192621 1.6552271
3.2046106 -2.4876144 1.6832566
3.4015396 -2.5034029 1.8284345
-3.9997461 -1.1261927 0.33624268
-3.8470695 -0.97415537 0.32315439
2.5948181 -1.8373008 1.5092176
2.7512984 -1.9942421 1.5632844
-3.6295545 -0.75244951 0.2851578
-3.4133995 -0.520688 0.29690313
2.4381387 -1.6587526 1.4028612
-3.216388 -0.33024719 0.2655015
-3.0896723 0.86134088 0.22503592
-2.9367127 1.2413324 0.23107196
-2.7487435 1.4532983 0.23547804
-2.5579553 1.6365988 0.24511527
5.421289 0.66899359 2.0032444
5.4705272 0.62619227 2.0235386
-2.4020076 1.8072476 0.25810978
-2.1075611 2.1006448 0.29310754
5.0427575 1.0687361 1.8501277
5.2416844 0.86145717 1.9295465
-1.93937 2.2583747 0.31893533
-1.7777921 2.3869712 0.34332231
5.0903926 1.2776777 1.8279722
5.2329307 1.4346578 1.9130287
5.0798206 1.8517056 1.8754705
5.29493 1.6256971 1.9331573
4.7312303 2.2363265 1.7312418
4.9462252 2.0193186 1.8057603
4.1185489 2.8459229 1.5340549
4.3487797 2.638361 1.5915589
4.5813985 2.4199433 1.5786394
3.7548575 3.1811781 1.5646024
3.939826 3.0410216 1.524327
3.3561704 3.6914227 1.3898441
3.6775887 3.5516129 1.4659492
3.9233818 3.5693266 1.5035603
3.3436983 3.8805017 1.3411962
3.6149092 3.7954905 1.4194884
4.9796243 1.8198731 2.2523105
4.3992457 2.416573 2.0266924
4.6173396 2.2113347 2.1087019
4.832551 2.0162847 2.1939042
3.9788797 2.8499467 1.9041243
4.2264018 2.627918 1.968307
3.6666055 3.2094905 1.8131003
3.8466656 3.0116987 1.8445965
3.6583059 3.4895599 1.7663237
3.8799932 3.5612588 1.8767847
