# .PCD v0.7 - Point Cloud Data file format
VERSION 0.7
FIELDS x y z
SIZE 4 4 4
TYPE F F F
COUNT 1 1 1
WIDTH 629
HEIGHT 1
VIEWPOINT 0 0 0 1 0 0 0
POINTS 629
DATA ascii
8.7652559 -12.609382 0.83715618
9.2218399 -12.765165 0.90277398
8.3043251 -12.281336 0.77840477
8.9428253 -12.565908 0.86770618
13.448543 -8.5338631 1.5380372
8.8779507 -7.9316783 0.18207741
9.0812178 -7.8569403 0.20135203
8.1307869 -12.207994 0.75365067
8.2884302 -12.258434 0.77695966
6.5985699 -10.950055 0.56250501
6.8226705 -11.099541 0.59264272
13.299118 -8.6114779 2.0810378
8.7834406 -7.9206867 0.5874055
12.217961 -7.7220984 1.3982173
6.7910337 -6.7295198 0.10141697
8.3623066 -12.515789 1.3057169
8.1870937 -12.395364 1.2759432
5.6440206 -9.1183233 0.1246914
5.7030869 -9.0775862 0.13697994
8.6178913 -8.1374903 0.97516823
12.095708 -7.7975965 1.8928044
6.7601333 -6.8877897 0.42228952
6.6614113 -6.5638337 0.10274169
6.5396185 -6.2668614 0.26990113
6.7182593 -6.2387671 0.28837934
0.22903512 -6.4078012 -0.89886838
0.47779498 -6.5724411 -0.85789776
0.72978061 -6.7427478 -0.81925142
5.83885 -6.8770003 0.63046569
6.3583136 -6.7616835 0.70723635
6.6466904 -6.9007034 0.74272251
0.15655373 -6.3580632 -0.91108757
6.0013461 -6.6349516 0.66148937
6.5744882 -6.6129322 0.74020374
6.4224606 -6.260982 0.49407658
4.3528538 -5.5211415 -0.024221933
4.4667158 -5.2549586 0.011450929
4.8359365 -5.1981144 0.050531451
5.1860056 -5.4246655 0.06351994
4.2073708 -4.8263535 0.023441829
4.33918 -4.9986777 0.021316886
0.49805334 -6.8458982 -0.53093243
0.71982372 -7.0035815 -0.48950797
5.6568332 -7.0866175 0.91303152
0.13261968 -6.4350882 -0.62446707
5.7943854 -6.8758798 0.93831766
6.2904587 -6.8176622 1.0208316
6.5588045 -7.0020423 1.0638616
-0.56348181 -5.9117408 -0.8409614
-0.28576249 -6.0744743 -0.88582581
0.011829622 -6.2860489 -0.82837886
5.951282 -6.6403761 0.96607667
6.0475388 -6.6536622 0.98180246
-0.98451775 -5.6595225 -1.0474061
-0.71760798 -5.7749362 -0.99808818
-0.47612613 -5.9060388 -1.0260878
3.9247744 -5.8212571 0.13973579
-1.1087121 -5.4581599 -1.1652755
4.3082595 -5.5223074 0.40758869
4.367795 -5.2780013 0.31655508
4.6199708 -5.1312008 0.27498579
4.1249161 -4.7429705 0.13074645
6.9901953 -4.0956378 0.80070609
6.0890932 -3.4449017 0.53353447
4.8639669 -2.644145 0.36293814
0.73514581 -7.1911674 0.002349749
0.39042029 -6.9281187 -0.12134721
0.57250702 -7.0742264 -0.036819547
5.5227156 -7.1919403 1.2075701
6.4680481 -7.1176438 1.5587156
-0.026765291 -6.4199018 -0.38133454
5.7330728 -6.886786 1.2433548
6.108675 -6.8323731 1.3964071
6.3239875 -7.0129523 1.5262278
-1.065038 -5.8651581 -0.57089078
-0.83109957 -5.9053969 -0.60625255
-0.45708334 -6.098299 -0.50612211
-0.21492159 -6.2732253 -0.44767681
-1.146391 -5.8045588 -0.66346359
-0.8489089 -5.8400478 -0.64203739
4.4403434 -5.8412743 0.7180872
4.348321 -5.5723834 0.70543492
-3.1756709 -4.3743348 -1.2596688
0.81445158 -3.7066844 -0.27408588
1.8185967 -3.6109133 0.0070794318
2.0313184 -3.7159581 -0.06548319
2.4678175 -3.6980469 -0.054374624
2.7894115 -3.7882097 -0.026158521
1.023582 -3.3979497 -0.23748761
1.2677586 -3.2487595 -0.17201571
1.6762302 -3.4884322 -0.093000382
2.0498321 -3.3536584 -0.0033794616
2.5137413 -3.2800436 -0.0071216635
1.193586 -3.1603651 -0.17239431
2.129844 -3.1952188 0.044739559
2.2804673 -3.1690676 0.04429023
4.8010898 -2.6747661 0.64637417
4.5000358 -2.3570111 0.46228704
3.6210563 -1.7764938 0.19930957
3.307461 -1.4253557 0.1998273
3.6971259 -1.6654495 0.20057023
3.0113022 -1.126641 0.10072957
3.2125282 -1.2721871 0.10974178
-2.6818516 0.54788804 -1.6766961
-2.8382874 0.80625439 -1.8234361
-2.7705595 0.79652041 -1.7831701
-2.5772488 1.2010403 -1.7728019
-2.4003778 1.4427781 -1.7416389
-2.2386825 1.6609656 -1.7210321
2.8091757 1.5148537 -0.30121642
3.2039745 1.3077453 -0.23397346
3.6104739 1.282492 -0.14350651
-2.0182953 1.9611392 -1.7035177
-1.8553977 2.1288769 -1.6798278
-1.4372959 2.1372943 -1.4853413
2.489357 1.7897834 -0.39645293
2.8854728 1.6625611 -0.29261678
3.2131648 1.6998885 -0.22552279
3.6027935 1.4988632 -0.11918839
3.960932 1.6882672 -0.027432906
4.3670964 1.6114432 0.077233173
-1.6526588 2.211288 -1.6120385
-1.5041727 2.2033474 -1.5401032
1.7776979 2.2046554 -0.59569144
2.0965238 2.0263512 -0.50088263
2.5179267 2.0828481 -0.39335716
2.833184 2.0363488 -0.30903029
3.0761485 1.9112533 -0.25458196
3.7964466 1.8887066 -0.034169551
3.8734043 1.8812344 -0.024649832
4.5355954 2.0747857 0.18687493
4.7849331 1.9489902 0.24222152
0.52602297 -7.175231 0.3256349
0.35272372 -7.047462 0.27585348
5.3436236 -7.3658409 1.4976072
-0.425495 -6.274621 -0.067599043
-0.18672448 -6.4501653 0.00082845491
5.6885715 -6.8194499 1.7086682
-0.90471429 -5.9575686 -0.18713418
-0.60449588 -6.1334672 -0.14086765
-3.1912818 -4.4998164 -0.86615628
-3.3538878 -4.2081671 -0.99837154
-3.2815511 -4.2849569 -1.0032815
-3.4992502 -4.012187 -1.0570229
0.78322953 -3.6850889 0.0088450285
1.6897295 -3.6175933 0.2563158
1.8330045 -3.733916 0.31782937
0.96278346 -3.4313946 0.012143016
1.1859087 -3.318146 0.11615474
1.5099001 -3.4592333 0.13477127
2.3864655 -3.3212922 0.2539227
4.3729453 -2.5147462 1.0391872
4.6734047 -2.7250404 1.0154293
4.326211 -2.3552716 0.86372936
3.5694942 -1.7865865 0.57301456
3.0262051 -1.2657355 0.56566262
3.2020764 -1.4052316 0.45899883
3.6602516 -1.6794444 0.4805178
2.5739918 -0.88531017 0.21928929
2.8932054 -1.0983216 0.25177941
3.1590176 -1.2594719 0.22655301
-2.6040554 -0.16987035 -1.163164
1.9188434 -0.42696512 0.079441272
2.1714694 -0.60600346 0.14992599
2.4232457 -0.77493215 0.16293877
-2.4053609 0.096367441 -1.2420518
1.7819539 -0.32583869 0.066647246
-2.9868133 0.65499443 -1.3945456
-2.6919048 0.47980648 -1.4566224
-2.4878056 0.30186459 -1.3406233
-2.9423835 0.76298296 -1.5253816
-2.8499119 0.89606887 -1.5072393
-2.6387556 1.2083515 -1.5108145
-2.449286 1.4395213 -1.4987066
-0.58638614 1.3501736 -0.78180885
-0.4526704 1.2258947 -0.699395
0.69550061 1.1728857 -0.38253
-2.4355271 1.4453168 -1.6249206
-2.2890155 1.6729286 -1.483353
-0.99962336 1.7120423 -1.0355579
-0.80017078 1.5338873 -0.90317047
0.74557298 1.4038699 -0.43305203
2.3919094 1.433744 -0.034713987
2.6000555 1.3641652 -0.051398512
3.5529647 1.2932245 0.22412071
3.8497136 1.3207964 0.38440084
-2.0726583 1.9650434 -1.4886582
-1.9669915 2.1321003 -1.3974272
-1.4018781 2.0562935 -1.2474824
-1.1562831 1.8506426 -1.1322861
1.7427723 1.8899362 -0.29105157
2.0031681 1.8755356 -0.30902094
2.3801746 1.6508217 -0.14083025
3.1399524 1.6286218 0.057753701
4.2267747 1.8385893 0.18995105
-1.8176941 2.2767274 -1.3748275
-1.6004422 2.2209353 -1.333487
1.450646 2.3051224 -0.67627138
1.7368866 2.1928899 -0.56789392
1.9889232 2.1347027 -0.43096453
2.4424462 2.2034979 -0.39563492
2.9875383 2.3027315 -0.22038402
4.3514128 2.0516176 0.16671734
1.4909921 2.5272994 -0.62953609
1.7106121 2.6064715 -0.5537824
2.4272001 2.5218401 -0.35321856
2.9133475 2.4747431 -0.22108681
3.1979604 2.5550513 -0.04980902
4.8034959 2.4248545 0.3554709
1.791342 3.0730927 -0.47351772
2.0841813 2.9888709 -0.39417994
3.4043739 3.0238314 -0.00020078461
3.6051373 2.9559796 0.050130691
3.8634357 3.0928841 0.25608835
2.0778811 3.378715 -0.3406713
2.3566606 3.2850647 -0.26056904
3.6704977 3.2600474 0.18661641
3.8291776 3.1318955 0.24224518
0.5726487 -7.1197805 0.58798903
0.42542151 -7.0098014 0.5413363
-0.63915157 -6.2526007 0.34741402
-0.31837603 -6.3818855 0.38667834
0.0088841189 -6.3890653 0.5371179
0.43060973 -6.2946405 0.72264427
3.2326148 -6.4992046 1.505641
-0.97904694 -5.9986634 0.14254454
-0.80319512 -6.1398931 0.25621223
-3.219111 -4.5569382 -0.55528629
-3.5059981 -4.1921616 -0.67391634
-3.3768518 -4.3368292 -0.67354691
-3.7843094 -3.8889933 -0.90172219
-3.6517556 -4.0038571 -0.78581989
0.56284142 -3.9077878 0.39543429
0.70268703 -3.6998932 0.42019558
1.4955596 -3.6191733 0.6384055
1.7155812 -3.7678261 0.65721208
0.86147058 -3.459553 0.44756296
1.0545825 -3.3278794 0.45732176
1.313789 -3.4809408 0.56537557
4.3117018 -2.5378864 1.3021848
4.5915284 -2.7768707 1.3937494
4.2327943 -2.409066 1.2398092
3.4607863 -1.8267534 0.97412229
2.8752491 -1.2391765 0.74170429
3.033246 -1.3966508 0.85743475
-0.36259195 -0.65948391 -0.12437505
2.207597 -0.77084816 0.61396402
2.4681144 -0.92886996 0.57826036
2.7679515 -1.1410515 0.64033604
-2.7444885 -0.30351552 -0.93662477
-2.652205 -0.18279034 -0.91869563
-0.40138656 -0.60444838 -0.12875599
1.7536837 -0.39112285 0.35497403
2.0446353 -0.60161662 0.42494768
2.3321126 -0.76831353 0.37563369
-2.7017782 0.29420331 -0.88881844
-2.5131028 0.0901272 -0.90231913
1.0190173 -0.051767644 0.12541033
1.2923305 -0.21110667 0.23462635
1.6343174 -0.2813687 0.26028016
-3.0784612 0.66663098 -1.1156479
-2.8637547 0.46843788 -1.074877
-2.6144617 0.29956588 -1.0696864
0.95558912 0.12872118 0.10498422
-3.0375423 0.75270683 -1.1133952
-2.8965778 0.96825379 -1.0804583
-0.065287568 0.80038679 -0.26814499
0.29138353 0.69777107 -0.15138744
0.47266442 0.88775861 -0.12864754
-2.6823633 1.2468883 -1.1477069
-2.5384943 1.4453075 -1.1040866
-0.69466662 1.3441269 -0.54172826
-0.46921107 1.1688868 -0.46979663
-0.25679517 0.98812997 -0.37541613
0.49961486 1.2531005 -0.23957035
2.3440652 1.2007791 0.36219203
3.0387468 1.1370815 0.40650335
3.2587278 1.0645289 0.45958048
-2.3655038 1.6822927 -1.0827708
-1.146455 1.7113633 -0.70840567
-0.87018514 1.4991544 -0.64101166
0.64945602 1.357688 -0.15220623
1.7386777 1.6464504 0.24961112
2.2486765 1.3906235 0.20887068
2.610306 1.2777542 0.2653484
3.0213275 1.36736 0.43514726
3.3718998 1.5043025 0.55567753
3.7891159 1.3653098 0.66927516
-2.1839824 1.9318321 -1.0623707
-2.0031953 2.1169491 -1.0169612
-1.5447741 2.0390351 -0.86939996
-1.3023325 1.8506631 -0.80471879
1.5723557 1.8790184 0.044241466
1.8656635 1.7853945 0.073221877
2.2441661 1.7443937 0.26036781
3.0347555 1.6797336 0.54235679
4.9458828 1.7735792 0.97755092
5.1687188 1.7759866 1.1332164
-1.8663136 2.2747002 -1.0264693
1.248477 2.2550485 0.040467542
1.497111 2.2246723 0.1112803
2.3813105 2.1097965 0.36152378
2.6696529 2.0696855 0.44276702
2.9977627 2.1155133 0.42996812
3.3166647 2.0858126 0.61116463
3.7915807 2.0173483 0.7441929
4.9527087 2.0376456 1.0454367
5.1129065 2.4776239 1.0340993
1.7691044 3.0392244 -0.057125662
1.891682 2.9574227 -0.013242266
2.0328066 3.2944796 -0.18132558
-0.95579612 -5.4379578 0.44784164
-0.70712137 -5.45082 0.51823545
-0.31631383 -5.462007 0.62810475
0.061576523 -5.4807076 0.73592275
0.44915509 -5.4883838 0.84553772
2.617831 -5.5638804 1.4723096
3.2341785 -5.5866895 1.6529394
0.48709705 -5.0269895 0.97539872
2.7618735 -5.546277 1.511484
3.1496706 -5.5592537 1.6249982
3.523855 -5.5532742 1.7324367
3.9170258 -5.5540204 1.8465283
4.3034606 -5.5672097 1.9605181
4.6878295 -5.5611157 2.0716732
5.0674534 -5.5687203 2.1833928
-3.3092241 -4.4869709 -0.2496855
-3.0664518 -4.6031222 -0.089157932
-0.93416178 -4.8427248 0.54799861
-0.6969735 -4.8567276 0.61480528
-0.31817582 -4.8914113 0.72494024
0.074494965 -4.8939381 0.83538771
0.37224945 -4.9387341 0.92758137
2.1711779 -4.8673253 1.4490407
2.3527353 -4.8863344 1.507827
2.7538104 -4.8426166 1.6246288
3.1476932 -4.8168912 1.7433969
3.495523 -4.7925797 1.8489168
-3.5788484 -4.1893759 -0.32691774
-3.4465871 -4.3093719 -0.27674356
-0.95751458 -4.3867807 0.62259907
-0.69238502 -4.3819866 0.69221365
-0.31088626 -4.408752 0.80196774
0.078033641 -4.4172316 0.91351324
0.33514261 -4.4219441 0.9888643
3.587949 -4.7750793 1.8753688
3.922431 -4.7462082 1.9769762
4.2939959 -4.7139645 2.090564
4.6918836 -4.6891599 2.2144735
0.45630839 -3.9606948 0.81725997
1.599972 -3.8950338 1.2714829
0.62926847 -3.6893404 0.79227376
0.95281774 -3.4713423 0.91588515
1.3634307 -3.64815 1.0037926
1.5811838 -3.8212926 1.098366
0.96861237 -3.3802662 0.84071767
1.2128475 -3.4793532 0.79781097
-4.1050167 -2.0087142 -0.50979608
-3.9199982 -1.7666161 -0.54674506
-3.7520514 -1.5403632 -0.58101195
-3.6177802 -1.3775047 -0.57514876
3.3746743 -1.8182414 1.3471678
-3.3616433 -1.0357441 -0.56720519
-3.2364712 -0.8567462 -0.50585681
2.7113326 -1.2687559 1.1223462
2.968112 -1.4495177 1.1491858
-3.0487366 -0.61561805 -0.54380131
-0.43447012 -0.61111134 0.085416503
2.047384 -0.7699821 0.89836138
2.2997429 -0.95699441 0.97314543
2.5343285 -1.1173029 0.9919433
-2.8718548 -0.3843894 -0.54683822
-2.7483149 -0.2263743 -0.53975278
-0.41827667 -0.58740819 0.079583004
1.0034093 -0.26628566 0.61976463
1.3284431 -0.29004619 0.77577537
1.6295627 -0.43739396 0.7168451
1.9152176 -0.65402097 0.81153923
-2.8382328 0.30127192 -0.61226338
-2.6205857 0.082721516 -0.55682147
0.90227449 -0.055602901 0.42167768
1.2707006 -0.26224932 0.53319538
1.4772115 -0.28587466 0.56253034
-3.1746421 0.60973054 -0.70082009
-3.0316362 0.52391011 -0.68866897
0.1343123 0.56281424 0.11590368
-2.9561052 0.9856236 -0.70041806
-0.42732066 0.98324043 -0.04336407
-0.17732109 0.79503644 0.016286621
0.20402282 0.68301231 0.12256104
0.39714277 0.86922944 0.17168851
-2.7630315 1.2382565 -0.71410239
-2.6161659 1.4394377 -0.66415673
-0.90308928 1.3283093 -0.1661991
-0.6267823 1.1471554 -0.10298916
0.38595441 1.2187973 0.16340369
0.52222645 1.1891418 0.22352305
-2.4366357 1.6810462 -0.64211977
-2.2952085 1.9165614 -0.45786607
-1.5359446 1.8235135 -0.35637558
-1.2908918 1.6538117 -0.33121186
-1.0872875 1.4841834 -0.25059539
0.59023541 1.3617806 0.072716989
1.6611228 1.5816674 0.32882529
4.5164962 1.5162182 1.3629615
-2.258822 1.9166881 -0.6743415
-2.0992365 2.1180329 -0.59425479
-1.6924282 1.9964989 -0.51414812
-1.4286499 1.8593086 -0.56205356
1.4477868 1.7707789 0.247932
4.5099478 1.5976297 1.3529915
4.8546591 1.8006109 1.3961059
5.1214671 1.7585651 1.3301034
3.4473944 2.289557 0.83420753
3.6731348 2.1464396 0.90214729
4.8806419 2.104254 1.3101271
1.5361453 2.6309695 0.18882604
1.845448 2.6044674 0.28057727
2.8318584 2.6033778 0.56733537
3.04389 2.5949259 0.70823771
3.2474947 2.4455166 0.78447759
4.994812 2.5201504 1.3411421
4.3473768 3.1027741 1.0630621
4.513773 2.9738865 1.1618152
4.7676344 2.7551017 1.3330276
3.8033421 3.5225699 0.85750932
4.3769178 3.1496196 0.96409518
3.2700891 3.960541 0.75611806
3.4665828 3.7838194 0.83100766
3.6830313 3.6110718 0.91263151
2.889787 4.2912793 0.6142233
3.0489461 4.1605296 0.67279297
-3.2463565 -4.0048413 0.00054379215
-2.9932249 -4.048399 0.06472192
-2.6558135 -4.1191158 0.15413822
2.0109556 -4.333487 1.4915028
2.3468904 -4.3243985 1.600327
-3.1989827 -4.0014811 0.010346906
-2.6109209 -3.6739469 0.23671429
-2.3264825 -3.7368834 0.30948135
-0.92771244 -3.9679635 0.68831837
-0.69185251 -3.9879148 0.75464791
-0.30461645 -4.0016985 0.86300564
0.076485179 -4.0252323 0.97741902
0.41189355 -3.9186916 1.0513402
1.6343096 -3.9121149 1.4466939
1.9060578 -3.8934491 1.5365164
2.4298129 -4.2796001 1.6192552
2.7848392 -4.2410517 1.7310941
3.1568906 -4.1844354 1.8472005
3.4727654 -4.1425447 1.9483976
3.8540652 -4.1044598 2.0743973
4.3004661 -4.0159178 2.2158394
-2.8668697 -3.602052 0.16964282
-2.1706872 -3.4014661 0.408043
-1.9416349 -3.2569804 0.5476684
-0.92493439 -3.4870343 0.76277709
-0.68555373 -3.5105274 0.82970238
-0.29878443 -3.533294 0.94026643
0.08510074 -3.5477996 1.0563718
0.52658415 -3.5680847 1.1335118
1.2197393 -3.6254206 1.3219486
1.5670309 -3.6308866 1.4593812
1.9672121 -3.7362208 1.573902
2.3927181 -3.7985928 1.6887246
2.8007491 -3.7110302 1.8192022
3.1641009 -3.6387508 1.9398685
3.411603 -3.574204 2.0203574
-1.891457 -3.022738 0.57057106
-0.93683195 -3.0415254 0.83867711
-0.68830746 -3.0577199 0.90293139
-0.28059849 -3.08637 1.021618
0.024966795 -3.109916 1.1120847
0.49433839 -3.2483575 1.2214137
0.86360073 -3.3020868 1.2361943
1.1893278 -3.1967633 1.4359825
1.5679878 -3.2069528 1.5432487
2.0205634 -3.2703433 1.6645658
2.3274667 -3.2707295 1.7615426
2.7202034 -3.2633302 1.8656236
3.0372849 -3.1618552 1.9716328
3.5752678 -3.5276246 2.0735826
3.9389584 -3.433048 2.1954358
-2.0918565 -2.8224988 0.52137971
-1.8545274 -2.7411397 0.60658312
-1.4341785 -2.8214898 0.73965037
-1.0646152 -2.8644938 0.82407701
-0.78477865 -2.903085 0.89779913
-0.18688424 -2.9363055 1.0682805
0.09799619 -2.9340127 1.1565078
0.47505945 -2.8957877 1.2723562
0.73786706 -2.8575606 1.3571684
1.2530495 -2.9842277 1.4844754
1.5918589 -2.8926551 1.5973434
2.1259835 -3.0507107 1.7277621
2.3743942 -2.9703915 1.8127019
3.1951466 -3.1075845 2.0249448
3.5760198 -2.9751744 2.1563666
-4.2746964 -2.1695552 -0.29556412
-4.1941113 -2.0613246 -0.24750726
3.7454357 -2.417351 2.0190825
4.0133848 -2.5928371 2.0253863
-3.9619801 -1.7569048 -0.26137131
-3.8485498 -1.5461191 -0.096465074
3.1757417 -1.9851292 1.777824
3.6389773 -2.3280494 1.9574794
-3.7852623 -1.5545129 -0.37179887
-3.6427255 -1.3282708 -0.24921167
2.9219263 -1.5773309 1.634874
3.2476466 -1.8866558 1.8305466
-3.4188068 -1.028735 -0.23342445
-3.3091934 -0.87926769 -0.2187261
2.3588011 -1.1372902 1.426402
2.6070194 -1.314687 1.484881
2.8078926 -1.4844511 1.6096545
-3.1196263 -0.61126429 -0.16382563
1.919452 -0.77693969 1.1929679
2.1838329 -0.98411131 1.3108982
-2.9394035 -0.38518548 -0.19826594
-2.7747428 -0.16147795 -0.15878683
1.5570701 -0.46129853 0.96417528
1.7754445 -0.64143449 1.0750715
-3.028872 0.30125216 -0.22100389
-2.7568464 0.10133763 -0.19986105
-3.2744241 0.59610397 -0.37286216
-3.1973372 0.60283381 -0.34066325
-3.0357518 0.97691518 -0.33563066
-2.8638601 1.2070736 -0.30327722
-2.7107036 1.4189017 -0.27846318
-1.0109268 1.3338987 0.035070099
-0.78068948 1.1966991 0.078714132
0.44643685 1.2455951 0.41927019
-2.4854009 1.7246027 -0.27524093
-2.3464773 1.9115922 -0.24409749
-1.7194912 1.8523843 -0.075534657
-1.4328128 1.6493371 -0.031123413
4.4900389 1.537213 1.5410852
4.5884051 1.5229567 1.5786412
-2.1573451 2.0979373 -0.21266924
-1.8494549 1.9691758 -0.15045455
4.4452038 1.6531581 1.5802197
4.7778044 1.8167206 1.7796538
4.9542913 1.6910958 1.91224
4.7915406 2.1546037 1.7080243
4.5848498 2.7428555 1.6989921
4.8363371 2.5574718 1.6980314
4.1384726 3.1140401 1.438098
4.4094539 2.9228194 1.5149838
4.6798491 2.7656162 1.517296
3.4964364 3.6060092 1.2480593
3.7566612 3.4276445 1.2636855
4.0082693 3.2393789 1.3495696
3.1077237 3.970731 1.0313298
3.3406711 3.7748182 1.0868071
3.6044014 3.6226437 1.0858765
2.7352073 4.2952056 0.88172859
2.9864936 4.1336713 0.93201357
3.2745543 4.1744766 1.1556467
-2.0632389 -2.58478 0.56847686
-1.8704547 -2.687197 0.62691092
-1.6368519 -2.8163803 0.70436162
0.9174943 -2.8332503 1.4207013
1.2399015 -2.7364213 1.5227197
1.667152 -2.784066 1.6391294
1.964856 -2.783107 1.7294147
2.4037182 -2.8027954 1.8549905
2.7277212 -2.8463538 1.9361993
3.0157673 -2.7277672 2.0362945
3.7208323 -2.917196 2.2055736
3.9308379 -2.8466249 2.2811577
-4.360992 -2.2216041 -0.017399408
-4.1811261 -2.0429735 0.016873373
1.6487368 -2.6042089 1.663457
2.0334849 -2.4599569 1.8048285
2.3826532 -2.4413891 1.899277
2.7429631 -2.4407229 2.001749
3.1218536 -2.5416987 2.0959044
3.5089648 -2.499706 2.2111573
-4.0399718 -1.7774206 0.053608675
-3.8052635 -1.677031 0.18218733
2.4362011 -2.2373574 1.9442145
2.7301266 -2.0719509 2.0554547
3.475915 -2.2845087 2.1466558
-3.7132742 -1.3299069 0.091416165
3.1130555 -1.831775 2.1191432
-3.5257828 -1.0953327 0.044966388
-3.3992975 -0.91581988 0.079240888
2.4906948 -1.3194788 1.7250104
-3.1851587 -0.64121389 0.038084172
-3.163974 0.34136415 -0.066549294
-3.3476305 0.59506154 -0.083210707
-3.2793479 0.58735627 -0.080898516
-3.0647485 0.99807274 -0.088620685
-2.8947227 1.2506678 -0.083451204
-2.7252836 1.4567298 -0.071123175
-2.4974291 1.7678815 -0.044280156
-2.3931007 1.9057853 -0.028021188
-2.2247002 2.1143265 0.0028779393
4.6869106 1.8049829 2.0898964
4.8611164 1.6543204 2.2005901
4.7139101 2.1659567 2.1075404
4.3921323 2.7724915 1.9792206
4.6794786 2.5492103 2.0782421
3.7724204 3.2352917 1.7704597
4.0301461 3.068579 1.7792512
4.2956529 2.8950572 1.8765866
3.2967529 3.6196685 1.5705783
3.6092219 3.413312 1.5983813
3.8805165 3.2417951 1.6090206
2.9590347 3.9420695 1.4160691
3.1988635 3.7286124 1.4820994
2.5557885 4.3046474 1.1963016
2.8491414 4.2289495 1.3594122
3.1881151 4.1548009 1.4388696
4.7569375 1.5996612 2.5999076
4.5450826 1.8133719 2.4772947
4.7582817 1.6246599 2.4852476
4.6294379 2.2480056 2.5169992
4.0339499 2.8731608 2.3190014
4.5482354 2.5342855 2.4491966
3.6643405 3.2398543 2.036406
3.8685303 3.0584464 2.152674
4.1023068 2.902638 2.2448554
3.2187605 3.5853057 1.8765186
3.4761999 3.397146 1.9529682
2.8422658 3.952394 1.6978494
3.0898094 3.8570871 1.766167
2.7657895 4.2864075 1.6947544
3.0976448 4.1513042 1.8314703
