# .PCD v0.7 - Point Cloud Data file format
VERSION 0.7
FIELDS x y z
SIZE 4 4 4
TYPE F F F
COUNT 1 1 1
WIDTH 824
HEIGHT 1
VIEWPOINT 0 0 0 1 0 0 0
POINTS 824
DATA ascii
15.481165 -16.885265 -2.4122546
15.612732 -16.79616 -2.401988
15.842487 -16.638844 -2.3842473
15.454948 -16.99437 -1.6181725
13.241129 -16.255766 -1.5653539
13.343368 -16.207153 -1.5580041
15.616408 -16.84951 -1.6006293
13.332751 -15.802817 -1.5117579
13.399871 -15.777549 -1.5078757
11.841643 -13.26105 -1.8706969
6.3321452 -13.578578 -1.9765967
6.4408698 -13.687926 -1.9912084
6.1712432 -13.417516 -1.9551727
11.728659 -13.684524 -1.2943304
9.2615032 -11.592458 -1.6154604
9.3066416 -11.485439 -1.6002275
9.6308851 -11.456964 -1.597955
6.479465 -14.034451 -1.5018159
5.898087 -13.153829 -1.920656
5.5279293 -12.782701 -1.8719394
5.7250443 -12.978437 -1.897481
11.732776 -13.54826 -1.2788713
5.1515641 -12.389753 -1.8202219
4.5273061 -11.767367 -1.740859
4.7134023 -11.960983 -1.7657588
9.4584751 -12.154246 -1.1556814
9.6847191 -8.7507935 -1.2395465
5.5118747 -7.537056 -1.681409
7.6648617 -6.4899807 -1.6211287
7.6883874 -6.4652543 -1.6190724
5.9142532 -13.541162 -1.4635282
6.112227 -13.740053 -1.4804336
6.3202744 -13.947656 -1.4980991
5.4572611 -12.681894 -1.3691667
4.836442 -12.212902 -1.3390412
5.1011705 -12.399584 -1.349813
5.3231606 -12.549458 -1.3581599
4.4498773 -11.686302 -1.7304703
4.6535726 -12.053746 -1.3275565
8.6104593 -12.313401 -1.1944644
4.1976089 -11.436603 -1.6993754
4.3448052 -11.589833 -1.7188023
8.8079042 -12.107244 -1.1643714
9.2726879 -11.998028 -1.1409472
9.4080467 -12.001487 -1.138669
9.2147894 -11.8766 -1.1278485
9.5079813 -11.871688 -1.1215894
7.6888556 -9.837369 -1.3561759
7.1467471 -9.4734888 -1.3024422
5.3893943 -7.8715234 -1.4062365
5.5587106 -7.8293066 -1.4008032
5.1630988 -7.3847876 -1.3145745
5.3097649 -7.5254345 -1.5056037
5.743392 -7.4316616 -1.3334906
5.1851521 -7.2609262 -1.2924614
5.4882126 -7.2707672 -1.4083318
5.6437373 -7.3559976 -1.3180077
8.40592 -7.4359064 -1.0444908
8.631628 -7.7092342 -1.0839038
12.664503 -8.1236382 -0.75413692
7.6397643 -6.5506563 -1.2709477
6.4949021 -5.3357983 -1.332647
6.1404796 -13.950921 -0.97265923
5.7861252 -13.584118 -0.9578715
5.980381 -13.777834 -0.96516484
5.6348491 -13.422579 -0.95110905
5.3248439 -12.906245 -0.91756332
4.7983465 -12.322372 -0.89232445
4.973474 -12.453088 -0.89381367
4.394238 -11.783468 -1.3052278
8.5264072 -12.423399 -0.68274075
4.1268644 -11.513576 -1.2837293
4.234468 -11.621046 -1.2921716
8.8343782 -12.122773 -0.64059788
8.9767818 -11.990641 -0.62220228
4.3406639 -8.0473795 -1.1137092
5.6128993 -8.1955214 -1.1163492
-0.062561356 -7.0974641 -1.5017595
0.086785741 -7.2434001 -1.5165195
4.6817842 -7.7417097 -1.0569581
4.7382841 -7.6869884 -1.0473424
5.3182654 -7.8584151 -1.0671182
5.5004287 -8.0894804 -1.1009998
4.8062825 -7.6223631 -1.0361317
5.2908964 -7.472343 -1.0083487
5.5832243 -7.4831767 -1.0090209
-0.90618819 -6.0609713 -1.6132653
5.2852812 -7.3197222 -0.98535889
8.5790024 -7.7586961 -0.6831944
12.671661 -8.2312746 -0.23533082
12.699702 -8.1873646 -0.23235725
-0.92519617 -6.01825 -1.6054388
3.6113069 -6.0211248 -1.3002635
4.058208 -6.0643692 -1.3203336
4.2028155 -6.2552624 -1.2299738
7.5778546 -6.6254745 -0.92331332
3.6655352 -5.7033477 -1.2315922
3.8845623 -5.8952904 -1.2789546
3.3490996 -5.3493695 -1.1466148
6.5585971 -5.571209 -0.91914964
6.3220444 -5.2432351 -1.0109029
5.5504012 -4.4022918 -1.1001649
4.5865397 -12.148889 -0.88902766
4.0991793 -11.644184 -0.8705827
4.2995253 -11.85013 -0.87791997
4.0266962 -11.572188 -0.86824578
0.076250643 -7.5018673 -1.3054304
5.5289507 -8.2210608 -0.77302921
-0.46994063 -6.9390502 -1.268207
-0.2328475 -7.1002536 -1.3519835
-0.060041539 -7.3544307 -1.2939889
4.5925274 -7.869256 -0.75896692
4.8688326 -7.7220612 -0.73053849
5.2648473 -7.9210825 -0.74329561
-0.79389828 -6.4646482 -1.2243433
-0.596717 -6.6739669 -1.3562083
-0.29883054 -6.8551078 -1.4775835
4.8630753 -7.6150126 -0.71703315
8.5306082 -7.8669086 -0.2891489
-0.95195764 -6.2604318 -1.3011431
-0.71827281 -6.4450727 -1.4444393
-1.5381584 -5.6148939 -1.3977809
-1.2740561 -5.8036375 -1.5008888
-0.82519937 -5.9181857 -1.5634397
-0.58740395 -5.7752328 -1.4881032
3.3249347 -6.299057 -0.85267276
-1.6528308 -5.4419713 -1.4515944
-0.49886709 -5.5550508 -1.4171649
0.10980877 -5.7290902 -1.3813084
3.3052266 -6.0619035 -1.0583827
3.46122 -6.055891 -0.85804754
3.9256115 -6.1144819 -0.8113538
7.5134382 -6.7509074 -0.40701124
-1.2175182 -4.8546886 -1.3583347
-0.025717378 -5.2771273 -1.2792176
3.381496 -5.484303 -0.94708496
3.5882277 -5.8305235 -1.013301
3.2794948 -5.4030318 -0.93146116
6.5036354 -5.677844 -0.47673503
6.2763181 -5.3571739 -0.58898902
5.4337707 -4.5485153 -0.61269552
5.4951653 -4.4763031 -0.73080349
4.3758078 -3.3415506 -0.74966025
4.1307044 -2.9788647 -0.74998909
4.2119002 -3.1104372 -0.77726865
4.6152134 0.42926076 -0.61504853
4.6638994 0.38696969 -0.62054312
4.595088 0.46610588 -0.61360997
5.2842541 0.42035225 -0.52261305
5.2452359 -12.760396 -0.4254697
4.3976007 -12.103801 -0.44821504
4.5984955 -12.288723 -0.44487193
4.8775358 -12.351278 -0.42578295
3.9985037 -11.70098 -0.45253044
4.1914248 -11.901904 -0.45087188
-0.17691788 -7.3967457 -0.92247736
-0.00029172451 -7.5818629 -0.89910591
4.3287396 -8.1520882 -0.37670481
5.3026094 -8.1865082 -0.26589769
5.3643656 -8.3110857 -0.099739984
-0.61405665 -6.9600716 -0.87817639
-0.3686111 -7.1948256 -0.91905802
4.5715008 -7.8998809 -0.44508538
4.8300982 -7.7671046 -0.41831288
5.1452446 -8.0068398 -0.31561172
-0.84765357 -6.4816709 -1.0019848
-0.74825364 -6.729033 -0.93048745
4.7972517 -7.6731696 -0.41078034
8.4764137 -7.968698 0.10656014
-1.2318288 -6.048871 -1.1033127
-1.0416089 -6.2677121 -1.0422459
-1.6174302 -5.6691642 -1.0509021
-1.3943014 -5.8666644 -1.1201482
3.4223299 -6.3433161 -0.60474294
7.4220037 -6.8754482 0.10905888
3.5073636 -6.1621165 -0.57754695
7.4577689 -6.8373199 0.11288582
6.4583859 -5.719738 -0.18039133
-3.5886295 -3.8420269 -1.1505685
6.2101526 -5.4198747 -0.16429408
0.14987621 -3.7901211 -0.77663183
1.4589881 -4.0420709 -0.69087058
1.6767575 -4.0421343 -0.7334308
5.427413 -4.6014023 -0.24662319
5.4756474 -4.555696 -0.11874288
0.28426751 -3.6570721 -0.76639116
0.46273431 -3.4809837 -0.75577456
1.0650767 -3.6250648 -0.68637121
1.3227813 -3.8777277 -0.73339397
1.6858799 -3.8243206 -0.75006223
5.4884267 -4.5412793 -0.36500141
5.5029521 -4.5232968 -0.36342859
0.64962143 -3.3327787 -0.70313615
0.88955069 -3.4272094 -0.71226555
1.5834732 -3.5059171 -0.57464486
1.7987254 -3.4399033 -0.6564737
2.0457377 -3.5778096 -0.72920883
4.2535253 -3.3168523 -0.39373609
4.4266796 -3.5382993 -0.26613644
4.1852369 -3.1155701 -0.49966863
3.3442681 -2.3917451 -0.49025175
3.441246 -2.3065674 -0.51188326
3.1116683 -1.9622657 -0.43948931
2.8256614 -1.597229 -0.42652425
-2.6952322 1.3316069 -1.0971994
-2.6198266 1.6308801 -1.1145614
-2.4158535 1.8283584 -1.0766436
4.0496469 0.7072705 -0.51907873
4.3779807 0.50213027 -0.58382332
4.997345 0.70167845 -0.50179213
5.2290301 0.50108176 -0.47144434
6.0916824 0.45247647 -0.39633724
-2.2075245 2.01825 -1.0440958
3.638309 1.0440571 -0.48268059
4.1624589 0.90953362 -0.57683998
4.5658298 1.0826901 -0.43527755
4.825469 0.86365873 -0.49129614
-2.0034411 2.2171743 -1.0203859
-1.791258 2.3964906 -0.99843657
3.041116 1.8082736 -0.53502178
5.004354 1.3832144 -0.35785565
5.3449688 1.326897 -0.25942978
5.5177374 1.2904756 -0.18746175
-1.5724247 2.5981894 -0.98551387
-1.3239744 2.7017186 -0.94907367
2.2509944 2.3077958 -0.55677474
2.5941656 2.1263986 -0.54615927
2.9079199 2.1079648 -0.50244266
3.4434314 1.9556212 -0.45535168
3.6545446 1.9405109 -0.37008357
2.3318191 2.5714874 -0.48660052
2.6584468 2.4143317 -0.47252113
2.8661728 2.3073061 -0.46562102
4.4368997 2.3972392 -0.22782302
4.6036263 2.2625399 -0.22045609
3.8438752 -9.592186 0.052647602
4.0960593 -9.6398821 0.074936941
4.4830785 -9.7450886 0.10740778
3.0884657 -9.3468142 -0.011222301
3.3077424 -9.4079561 0.0079393508
3.6800044 -9.5136995 0.040024541
3.9091165 -9.5643444 0.060125638
-0.29412693 -7.4141207 -0.54916859
-0.088964611 -7.630517 -0.54220933
4.326375 -8.1752872 -0.0041866605
5.1709571 -8.2318792 0.22983621
-0.68594259 -7.0082521 -0.56473356
-0.47087008 -7.2306881 -0.55587828
4.5097566 -8.0009708 0.020379145
4.737885 -7.8537855 0.069454253
4.9928994 -8.0442324 0.22115695
-0.94402242 -6.5048246 -0.67200166
-0.85819644 -6.6977758 -0.56161541
-1.3472182 -6.0901427 -0.66489738
-1.0871058 -6.341989 -0.7130903
-1.5900868 -5.7775283 -0.79723477
-1.5115072 -5.877552 -0.79662395
7.3977795 -6.9165463 0.45786843
-3.5493498 -4.0841079 -0.78097665
6.2711468 -5.6767588 0.25897795
-3.8189566 -3.7034726 -0.88362026
-3.633364 -3.884409 -0.91018677
-4.1362314 -3.3649921 -0.84972811
-3.9657142 -3.4744575 -0.88628662
0.12717555 -3.843051 -0.47473353
1.3045493 -3.9857419 -0.39074191
5.3740392 -4.6780586 0.11729472
5.4514852 -4.6209836 0.12394456
0.27217752 -3.7018566 -0.4374254
0.46525085 -3.5350454 -0.39271331
0.98908412 -3.6640594 -0.3669627
1.1857933 -3.8649812 -0.38193619
1.7830673 -3.6320403 -0.45452574
0.63922769 -3.3775916 -0.45220152
0.81911278 -3.4448988 -0.47087461
1.6879036 -3.5465395 -0.44324037
4.3404474 -3.610451 0.021260943
4.0029511 -3.1576698 0.12424799
4.1030288 -3.3106019 0.061131056
4.3890743 -3.5647075 -0.072206266
3.9985604 -3.0665534 -0.13276684
3.3143764 -2.4558096 -0.19644962
3.3861394 -2.4075978 -0.12880407
2.9448774 -1.7903502 -0.18400559
3.0644331 -1.9577157 -0.15288696
2.540452 -1.3861196 -0.17945445
2.7952344 -1.6139475 -0.24470364
2.1606834 -0.98510534 -0.20640236
2.3822837 -1.2171892 -0.20096932
-2.8088253 0.23891988 -0.71259713
1.7824455 -0.60621399 -0.16163561
1.9808158 -0.79373032 -0.20384453
-2.724787 0.30027884 -0.74296474
-2.5242565 0.50481039 -0.79689389
-2.3938534 0.85512084 -0.77495021
3.4494514 0.17025891 -0.069070436
-2.723594 1.2894297 -0.86165154
-2.5475192 1.0880423 -0.90028453
3.1704237 0.45948285 -0.066198058
3.5929198 0.43739459 -0.082807288
3.9303937 0.3653681 -0.092969261
-2.6379204 1.6105441 -0.87303776
-2.4383032 1.8072536 -0.84048599
-0.28913683 1.4916877 -0.41081613
2.6199741 1.0926236 -0.23583922
2.7819996 0.90954185 -0.23296344
3.273483 0.77606988 0.036059052
3.5793025 0.63420546 -0.048090991
6.2925582 0.38771981 0.032900676
-2.2200732 2.004369 -0.80872947
-2.0150261 2.1807292 -0.7236948
-0.61601466 1.8948716 -0.51884943
-0.42064279 1.6533335 -0.44351634
2.1432474 1.5271107 -0.18853855
2.4990835 1.3421537 -0.24097805
2.8559906 1.3695694 -0.22244333
3.5054622 1.0361731 -0.23472564
5.3202109 0.78753668 0.21810703
5.5777817 0.82245272 0.22509915
-2.0122888 2.2058179 -0.9009617
-1.8095942 2.378648 -0.76367593
-0.94774693 2.299871 -0.61487949
-0.76896328 2.0869267 -0.57530802
2.1519346 1.6894302 -0.25023037
-1.5921159 2.5760279 -0.74719536
-1.3286678 2.6776576 -0.73760223
-1.1143092 2.5084617 -0.68802053
3.7103138 1.8219328 -0.16454458
2.7768703 2.6926591 -0.3831906
2.9447441 2.6606419 -0.38196394
4.3372064 2.4503906 -0.23047695
2.7005486 2.8583715 -0.28721911
3.0624685 2.9106293 -0.26730633
3.5840993 3.3329566 -0.13942528
3.2680519 3.4890289 -0.16420797
3.4484427 3.4392405 -0.15337107
-0.3829059 -7.414588 -0.30200562
-0.072664976 -7.5879097 -0.27318013
4.3371353 -8.0710163 0.47939929
-0.71535873 -7.0349555 -0.26419708
-0.48394352 -7.189806 -0.1174377
-0.10176419 -7.2741113 -0.010457397
2.5069022 -7.6338482 0.28290012
2.7329626 -7.6496367 0.3077983
3.1185789 -7.7088408 0.34976563
3.5211716 -7.7815785 0.39322576
3.9037626 -7.8583708 0.43423834
4.2996678 -7.9687905 0.47621369
4.6960053 -7.9230404 0.51935005
5.0858078 -8.0857248 0.55988812
5.4630647 -8.1428919 0.59978426
5.8563924 -8.2116556 0.64116561
-1.0647227 -6.5436125 -0.20760845
-0.88674778 -6.7174196 -0.25263473
-1.4289163 -6.1461878 -0.26493505
-1.2298378 -6.3602719 -0.2461748
6.3345461 -5.9146438 0.70581722
-3.5405865 -4.1578751 -0.47753018
-3.8927441 -3.7538793 -0.53904611
-3.6835878 -3.9694207 -0.51318115
-4.1706591 -3.362566 -0.6035068
-4.01964 -3.4342394 -0.5829168
0.081615858 -3.921051 -0.069536969
1.2263814 -4.0637851 0.051879454
5.3248696 -4.7476439 0.44156638
0.25415739 -3.7502108 -0.05902629
0.47440076 -3.5607979 -0.025950495
0.89595699 -3.7094932 0.026721075
1.1039788 -3.903698 -0.044351768
0.61215281 -3.4257712 -0.004860667
4.2902231 -3.6780546 0.40695217
4.3210502 -3.6708055 0.4098686
3.9338322 -3.1533444 0.29556042
4.0482726 -3.3386133 0.38986284
3.2460053 -2.5600655 0.2591998
3.3488727 -2.4715555 0.23287323
2.8333373 -1.8373125 0.27350718
3.0085125 -2.0642297 0.25297609
2.4709041 -1.4339104 0.17754599
2.7064209 -1.6636127 0.14984344
-3.132951 -0.072059475 -0.34291852
-0.36338374 -0.50421864 -0.054530285
1.8781359 -0.81645221 0.16003942
2.0817173 -1.002915 0.10688592
2.2820508 -1.2193781 0.12802173
-2.9165933 0.11690647 -0.43052635
-2.7448885 0.25819895 -0.34250078
-0.39574903 -0.45114756 -0.061535828
1.1646937 -0.2949115 0.15243657
1.2410877 -0.37677559 0.039635606
1.749102 -0.6366989 0.060833089
1.9409916 -0.79967833 -0.089630887
-2.7370803 0.28477713 -0.54070896
-2.5178745 0.47119692 -0.42145959
1.1010916 -0.11663088 0.049515817
1.210247 -0.28295654 -0.018571518
-2.6638463 1.0500268 -0.44715947
-2.4677508 0.81186587 -0.41024178
0.34963554 0.6081053 0.0051481295
0.56108731 0.59774435 0.0087179216
-2.7940578 1.3201847 -0.48123661
0.048198342 0.98531109 -0.048355367
0.25403997 0.76321793 -0.035785735
0.55123329 0.62162334 0.0055209622
4.0243683 0.1992788 0.19020219
4.155087 0.33417344 0.19198418
5.0792942 0.2983849 0.57814258
5.3404698 0.2114566 0.6047312
-2.6039381 1.6326586 -0.46135637
-2.4766605 1.746426 -0.41101283
-0.2990486 1.4219915 -0.16080005
-0.076509051 1.17453 -0.16510813
0.95700657 1.0332576 0.15568548
2.5093067 0.9655661 0.090010419
2.686121 0.84427577 0.033131085
4.1457725 0.87325478 0.18001589
4.307024 0.67357874 0.18978123
5.195117 0.48714805 0.54095215
5.5725112 0.54899001 0.50560749
5.8953276 0.45933598 0.44899052
6.285408 0.34525207 0.47528484
-2.2393668 1.9658796 -0.41516078
-2.0332944 2.1524072 -0.39131138
-0.66212708 1.8453608 -0.22013396
-0.46075967 1.6125896 -0.20948988
2.0451317 1.4447602 0.10750927
2.3396468 1.2875329 0.028087318
2.8515697 1.4358777 0.11429472
3.2233315 1.2121162 0.13775302
3.5976598 1.0957946 0.15533078
3.9770246 0.94604826 0.17260048
4.3709874 1.2414855 0.4178592
5.3712392 0.99707502 0.60061103
5.5174723 0.86945575 0.51730001
-1.8153582 2.3487103 -0.36826062
-1.5203356 2.5115271 -0.25291479
-1.0214329 2.2655613 -0.27079797
-0.84481108 2.0599563 -0.24239485
1.852082 1.8409989 0.043559551
2.0056319 1.6941271 0.014462355
3.326278 1.7938566 0.25046363
3.7002459 1.7268921 0.27875865
4.0685363 1.5425324 0.4025546
4.3074121 1.3340786 0.4108918
5.6445761 1.2725983 0.5223543
-1.603896 2.5603809 -0.51619339
-1.4008845 2.6185534 -0.34103429
-1.1976519 2.4999096 -0.38557357
2.1330705 2.0942967 0.14959139
2.3804631 2.0473998 0.1711666
3.7119589 1.9333309 0.42261755
3.8929474 1.7549416 0.44355538
5.7558031 1.5229938 0.5272119
2.3167839 2.5208211 0.26880097
2.5302737 2.5545707 0.20308979
2.9841037 2.4149072 0.34022474
3.1970768 2.3722248 0.36294493
5.1207385 2.1698058 0.56130135
5.2602625 2.074471 0.47568923
4.6271005 2.7512054 0.50267977
4.3421111 3.0772643 0.46818709
4.4915028 2.917721 0.48615843
-1.3750831 -6.0372467 0.064922944
-1.0876065 -6.0697098 0.098260127
-0.69177073 -6.1117864 0.14448062
-0.29841837 -6.1614151 0.19106649
-0.07147608 -6.1833305 0.21796755
-0.22833778 -6.1422462 0.19871023
2.1065505 -6.3881583 0.48352292
2.4484773 -6.4333863 0.52659762
2.872997 -6.4695272 0.5799374
3.2612507 -6.5041909 0.62906247
3.6716149 -6.5414662 0.68129486
4.0019312 -6.5543637 0.72316623
4.4503002 -6.6101584 0.78108639
4.8282018 -6.630312 0.82955086
5.2483621 -6.6439261 0.88346404
5.6581869 -6.6835108 0.93678623
6.0523324 -6.7093978 0.98798454
-1.2891451 -5.2749586 0.24304193
-0.99878216 -5.3183661 0.27632195
-0.59904277 -5.3709583 0.32306176
-0.2214601 -5.4133887 0.3682622
1.8040402 -5.5559168 0.62953931
2.1755197 -5.566309 0.68049961
2.6222951 -5.5753531 0.74296838
2.9695332 -5.5719938 0.79192507
3.3712385 -5.5706964 0.8496998
3.7661796 -5.5709896 0.90751988
4.0134802 -5.5657749 0.94386941
-3.5718534 -4.1418839 -0.14135394
-3.3535624 -4.3300858 -0.048903428
3.9546063 -5.5455656 0.93411958
4.1970849 -5.5601439 0.97102308
4.5741162 -5.5524936 1.0274587
4.9865685 -5.5388064 1.0896649
5.2213988 -5.5249043 1.1251038
5.9349613 -5.5569682 0.95066994
-3.906395 -3.8175919 -0.2104004
-3.7566566 -3.9964664 -0.14383811
0.052673135 -3.961802 0.32937604
0.22601201 -3.8059349 0.45579395
0.98080117 -3.9334061 0.42775366
1.1429411 -4.1245055 0.47863817
5.246562 -4.8419051 0.97376579
0.2357852 -3.7788134 0.26001647
0.44176143 -3.6008773 0.33983555
0.80501103 -3.7375374 0.39347813
4.2110963 -3.7322145 0.82436299
4.2427125 -3.7660108 0.89701957
3.6465251 -3.2110672 0.78033298
4.013288 -3.4070151 0.66118377
3.1810963 -2.6388469 0.68431479
3.3583345 -2.8296037 0.79283488
-4.367734 -1.2603157 -0.028716903
3.1275587 -2.4618542 0.71240723
3.2728391 -2.5518098 0.69551909
-4.0075479 -0.92172408 -0.097502857
2.7502842 -1.8754476 0.61135417
2.9451141 -2.10022 0.62569749
-3.7943699 -0.7214846 -0.11359615
-3.5923145 -0.53792244 -0.084784426
2.1585984 -1.2715783 0.60269076
2.3652508 -1.4676692 0.55925733
2.5916135 -1.6886193 0.55340546
-3.3490951 -0.30967578 -0.095629111
-3.207123 -0.1915002 -0.032717295
-0.4173941 -0.48731816 0.17658968
1.7818104 -0.84125388 0.50018531
1.9918959 -1.0656446 0.51581967
-2.9588983 0.038647171 -0.06073676
-2.7495654 0.22314483 -0.051248621
1.104061 -0.31294313 0.37346864
1.167533 -0.45326322 0.42267331
1.6784322 -0.71729928 0.47257194
-2.5259242 0.42900199 -0.0080379155
1.0201331 -0.18963847 0.35503665
-2.7638693 1.0205586 -0.042088691
-2.5660517 0.79860467 -0.036112655
0.30190164 0.58241343 0.22480208
0.51543814 0.56156129 0.26641613
-2.8515148 1.2738529 -0.052833088
-0.014104674 0.95005167 0.22376189
0.18892157 0.76629734 0.19971322
0.77374172 0.83606267 0.40698817
0.90607369 0.95452094 0.53954977
5.0647006 0.28794497 0.8194747
5.3308978 0.25255495 0.88933587
6.1014495 0.16046225 1.0070184
-2.662827 1.534355 -0.024554631
-2.460758 1.7139448 -0.0067034089
-0.616045 1.5675235 0.27883708
-0.40045977 1.3723873 0.2138571
-0.19801392 1.1502042 0.2306284
0.93054229 0.99498671 0.25713268
0.92332059 0.98180145 0.41254097
5.0924778 0.56213659 0.82083046
5.3560224 0.50187689 0.98831129
6.2097602 0.24272662 1.0224816
-2.2186012 1.9520339 -0.035761144
-2.0677264 2.06634 0.063881047
-0.96511453 2.001822 0.15580873
-0.77312505 1.7819618 0.1798915
-0.57103997 1.5889224 0.094827078
5.3236465 0.86727685 0.78926033
5.3985457 0.93172652 0.89744097
-3.0673454 2.4242857 0.051624484
-1.8284063 2.2912652 0.060197528
-1.4669746 2.4547679 0.097040251
-1.140379 2.217032 0.12801984
5.6090126 1.2838917 0.94441628
-1.4566153 2.5600188 0.10370448
2.0494497 2.044672 0.35561934
3.7181263 1.9457178 0.57376933
3.8807461 1.7759395 0.5950973
5.3038182 1.8642145 0.88535815
5.5462046 1.6120136 0.86869341
4.9984441 2.2006552 0.86121738
5.1884389 2.0108356 0.86887437
2.7474751 2.9439812 0.50002015
2.844636 2.84478 0.56067538
4.3770986 2.8693037 0.75694698
4.5932593 2.6677895 0.80000407
4.7929487 2.4445522 0.9108156
4.0523481 3.3056102 0.81087559
4.2316689 3.0812519 0.73874682
4.4153023 2.9067545 0.76306558
3.9182141 3.5360758 0.68688065
4.0961742 3.3252888 0.62774813
-0.21209612 -4.9496303 0.51248968
-3.5490177 -4.1308203 0.16066918
-3.2814178 -4.2392111 0.18496422
-1.207727 -4.6903419 0.38399753
-0.93197984 -4.7434053 0.41598496
-0.53777844 -4.7861886 0.46100229
-0.18134014 -4.8370066 0.50538617
1.5006578 -4.9026475 0.73022825
1.8626606 -4.9059539 0.78400886
2.1758277 -4.9431701 0.83491582
5.4010563 -5.5262685 1.1529335
-3.6846225 -3.9764009 0.14183861
-3.0212297 -3.7418358 0.32883132
-2.8217447 -3.8018618 0.34333134
-1.1212194 -4.2278996 0.50017941
-0.87466383 -4.2713079 0.52796155
-0.47948074 -4.3342347 0.57522541
-0.19839524 -4.3592229 0.6089744
1.2759725 -4.3979106 0.81225187
1.4652613 -4.4099002 0.84354478
2.2920949 -4.8760071 0.84721285
2.6653528 -4.8689561 0.90604705
3.1260457 -4.8451934 0.97980791
3.4621394 -4.8089218 1.03369
3.84533 -4.7666211 1.09661
4.225286 -4.7914195 1.165282
-3.4401677 -3.5975418 0.30011311
-3.2122004 -3.6708584 0.31483516
-2.6034086 -3.4062891 0.45856521
-2.4093339 -3.4653261 0.47107968
-1.099296 -3.8099773 0.58638489
-0.83000344 -3.8716586 0.61810583
-0.43714151 -3.9291363 0.66437006
0.033658933 -3.9669089 0.66344726
0.21517961 -3.8216257 0.65514928
0.89637542 -3.9583693 0.77076131
1.1201855 -4.0929384 0.80871576
1.6265811 -4.3860159 0.86662889
1.9130003 -4.3612514 0.91161376
2.3499813 -4.3143001 0.98266572
2.7320149 -4.2790356 1.0489733
3.017957 -4.2340202 1.0983711
4.0198846 -4.7416468 1.125348
4.2259402 -4.7538042 1.1627471
4.698822 -4.675086 1.2422663
4.9579611 -4.6531105 1.2880303
-3.0003545 -3.2462416 0.43267351
-2.7218862 -3.174427 0.49654293
-2.3346949 -3.1184053 0.56094617
-2.1028144 -3.2191641 0.5784772
-1.0307713 -3.3671455 0.70220256
-0.772798 -3.410387 0.72869927
-0.38120914 -3.4698925 0.77548617
-0.034196667 -3.5595963 0.81220162
0.42140588 -3.644124 0.72115463
0.73520482 -3.7311871 0.78018272
1.2539201 -3.729862 0.95607263
1.5215703 -3.8222468 0.97329009
2.0164511 -3.8901393 1.0308759
2.3444853 -3.8501859 1.0911101
2.6517396 -3.7778943 1.145571
3.168143 -4.201467 1.1241183
3.5453794 -4.144815 1.1932955
3.9463847 -4.0716777 1.2681172
4.2022176 -4.0137458 1.316041
-2.1917775 -2.8506215 0.64261454
-1.9370016 -2.9428275 0.65639269
-1.0262762 -3.2080467 0.7305336
-0.77934903 -3.0942457 0.79253435
-0.28939047 -3.1658154 0.8507778
0.0045007835 -3.2676923 0.87135839
0.42716721 -3.36851 0.91758621
0.8896448 -3.3270409 0.98712093
1.1586844 -3.3064051 1.0348779
1.6210113 -3.5355556 1.0420769
2.050246 -3.482892 1.1254857
2.2838824 -3.4297359 1.169861
2.8263395 -3.7286942 1.1770079
3.2218323 -3.6407824 1.2544708
3.4878573 -3.5760126 1.308136
4.090066 -3.7210512 1.1661822
4.1882491 -3.8654096 1.2997794
3.4759562 -3.0962317 1.2503188
3.6906569 -3.2824495 1.1429682
3.8949881 -3.4840674 1.1095053
-4.8101525 -1.6828086 0.1031277
-4.635756 -1.5674127 0.14101931
3.1297684 -2.7064064 1.0482631
3.2639048 -2.7598228 1.0568831
-4.4493842 -1.346915 0.15133363
-4.2255349 -1.1483052 0.1997907
3.0477006 -2.3413301 1.0650012
3.2659438 -2.6042953 1.0702829
-4.0120044 -0.95169729 0.25954479
2.4232757 -1.7027706 1.0677806
2.6697061 -1.9307604 1.0116779
2.8817937 -2.1374035 1.004511
-3.8102968 -0.7635411 0.24510014
-3.5917206 -0.56343138 0.25504655
2.1001875 -1.2957975 0.86461121
2.2725129 -1.5010363 0.94551831
-3.3813899 -0.37489343 0.27726364
-3.1671987 -0.18215604 0.33653378
1.7288159 -0.86355096 0.75744379
1.9206229 -1.0909396 0.83754569
-2.9389257 0.031900216 0.31682527
-2.8044312 0.14792097 0.37261635
1.6291407 -0.7478537 0.74219537
-2.571523 0.43379804 0.33920488
-2.8547504 0.96599704 0.37674317
-2.6301227 0.7444042 0.30888301
-2.8591368 1.3046787 0.34889489
6.1355743 0.14057668 1.4949893
-2.6825361 1.4916624 0.35539749
-2.4626515 1.6849372 0.41996425
-0.65561473 1.5516626 0.43511823
-0.48232993 1.3736078 0.42983001
5.4899855 0.52615893 1.3133543
5.7269459 0.37199074 1.3123407
6.2122955 0.21381804 1.4362546
-2.257329 1.8772459 0.43470222
-2.0430782 2.0657525 0.45501828
-1.049243 1.9723144 0.49859181
-0.86022645 1.7816787 0.45242199
5.3993587 0.93238568 1.3168418
-3.1302111 2.4593406 0.19177949
-1.8019345 2.2904181 0.45024318
-1.5630518 2.3935874 0.52584267
-1.233831 2.1833417 0.46882847
5.5793519 1.3365426 1.3427464
-1.4958221 2.5263197 0.40156499
5.2461991 1.791103 1.2802033
5.4323454 1.5851853 1.3155057
4.6803842 2.4014025 1.1803805
4.8771062 2.1995924 1.2140967
5.0925598 1.9910594 1.2532109
4.300869 2.848304 1.1222708
4.5086565 2.624084 1.1543146
4.7645788 2.4187405 1.1005281
3.9825068 3.3019826 1.0836937
4.149857 3.0697584 1.1035476
3.5867536 3.7276139 1.0344683
3.8099573 3.5137684 1.0634974
4.2723403 3.3680661 1.1124616
3.5103767 3.8394325 1.0279657
-2.2781456 -2.8111632 0.66176593
-1.8915086 -2.7171657 0.72790384
-1.5257434 -2.8543727 0.75305611
-1.1449651 -2.983145 0.7884258
-0.70130157 -3.0541134 0.82638687
-0.3073985 -3.1165652 0.87528628
0.062444955 -3.1129949 0.9171654
0.4551332 -3.1166925 0.97716063
0.81102717 -3.0971375 1.0368487
1.354154 -3.2758663 1.0691319
1.6045361 -3.2404854 1.1177496
2.4608474 -3.3895271 1.2053795
3.6366434 -3.5300052 1.3378677
5.2989297 -3.8434696 1.538475
-5.0702147 -1.9146841 0.34473467
-2.2186766 -2.5638912 0.70945477
-1.9994606 -2.6398427 0.71469641
0.97001529 -3.0686796 1.0618718
1.3403521 -3.0034277 1.1298071
1.7088423 -3.0248616 1.1822739
2.0611553 -3.0497568 1.2239169
2.5245612 -3.1067183 1.2727427
2.8338835 -3.2799492 1.2805536
3.184087 -3.1720216 1.3554299
3.7736001 -3.4839318 1.3652997
4.4274378 -3.2961581 1.5060676
-4.8612309 -1.7619809 0.41839024
-4.5529647 -1.5563776 0.55610609
-4.3042979 -1.5917144 0.62040615
2.1294742 -2.7884409 1.2923003
2.5440075 -2.6929464 1.3699625
2.9802139 -2.8043168 1.3651294
3.1697721 -2.7412329 1.3455925
4.6449161 -3.207175 1.5522658
4.6874051 -3.2124934 1.5635614
-4.4244642 -1.3571115 0.5175122
-4.1330361 -1.2608628 0.63781989
-3.9386902 -1.4573876 0.72090089
2.7190812 -2.5360761 1.4261585
2.9079025 -2.3594449 1.4304565
3.2763517 -2.6085889 1.4638834
-4.0512547 -1.0094396 0.59529448
-3.824986 -0.80206156 0.58764893
2.4291949 -1.7408655 1.190681
2.6189885 -1.9569654 1.2465057
-3.6442902 -0.63369733 0.56686211
-3.3992286 -0.4039627 0.578035
-3.1939683 -0.2163009 0.5440492
-2.9671662 1.0264015 0.55886608
-2.8885045 1.2706969 0.57404077
5.715899 0.21349147 1.8275045
6.1249213 0.12116507 1.7967268
-2.7125719 1.4770519 0.57795346
-2.6033878 1.5530534 0.57672399
5.4257989 0.54896325 1.7073747
5.6219296 0.3235116 1.7633144
5.2342348 0.80848604 1.5542952
5.3831186 0.94201267 1.7030288
5.5120807 1.3089485 1.7527515
4.9540076 1.9587677 1.6222185
5.16115 1.7471762 1.6698793
5.3539987 1.5433985 1.7157197
4.6010017 2.3769588 1.5516648
4.7933712 2.1553507 1.5896833
4.9803648 1.9781804 1.7338842
4.141408 2.8415172 1.6015211
4.422101 2.5959096 1.520317
3.854908 3.2163775 1.6035005
4.0984316 3.0733562 1.510389
3.5039239 3.6813385 1.3963428
3.7949452 3.5500507 1.4193221
4.121706 3.3530912 1.5132037
5.6475306 0.099612579 2.2687783
6.0633054 0.03200506 2.1289682
5.3412886 0.51676929 2.0799117
5.5176735 0.29849318 2.1638374
5.3690276 0.90593773 2.1021266
5.2486544 1.5040833 2.1102295
5.4243894 1.2773489 2.1617901
4.863554 1.9314933 2.0041428
5.0676155 1.7168156 2.0601628
4.4837432 2.359509 1.9345948
4.7291703 2.1108458 1.9529513
4.1363268 2.7702479 1.8473182
4.3555155 2.5539613 1.8929274
3.760288 3.2596765 1.8178234
4.0691223 3.0765457 1.9035665
3.43503 3.62677 1.7606672
3.7259698 3.5077755 1.7762707
5.7763128 0.012428786 2.3759148
