# .PCD v0.7 - Point Cloud Data file format
VERSION 0.7
FIELDS x y z
SIZE 4 4 4
TYPE F F F
COUNT 1 1 1
WIDTH 1509
HEIGHT 1
VIEWPOINT 0 0 0 1 0 0 0
POINTS 1509
DATA ascii
5.6506004 0.36427739 0.19289473
-2.4803405 0.42626095 0.1960749
-2.3452365 0.59507018 0.18699339
0.51933515 0.58148235 0.10964603
0.60467213 0.5456928 0.10687332
4.105442 0.5321036 0.080043375
5.155755 0.56565428 0.062847778
5.2244158 0.45359498 0.080890335
-2.4119074 0.79409915 0.1603511
0.35545725 0.6986751 0.11407395
0.52642411 0.61640906 0.091727316
5.1448359 0.62945116 0.034511048
5.4615059 0.73965746 0.15700853
-2.5995953 0.99536824 0.18498866
-2.3903949 0.80910391 0.044049874
0.15447244 0.95599973 0.12892158
0.27988195 0.81045806 0.095744163
0.88462782 0.88348353 0.09399952
5.5249104 0.86097795 0.16727461
5.6092448 0.85267907 0.13507624
-2.9557145 1.0867101 0.061802894
-2.5910616 1.0048108 0.16984534
-0.050466161 1.175649 0.15474914
0.036484644 1.0562068 0.15964223
0.89417249 1.0522318 0.049347535
1.0365363 1.0266258 0.085134909
4.3212981 1.1068906 0.15794453
4.4976015 1.0562596 0.18250117
5.7174287 1.1229211 0.15096025
5.814888 1.194088 0.1697429
-2.847007 1.291226 0.18322997
-0.22747476 1.3682315 0.19000213
-0.12555797 1.2589256 0.15832256
3.6152065 1.3955288 0.049359456
4.1914167 1.3526845 0.19832084
5.8699737 1.2484685 0.15650189
-2.7413559 1.4252225 0.15034936
-0.47294644 1.4307812 0.01703912
-0.2936317 1.4240241 0.17247814
3.4508581 1.4176748 0.028314754
5.7134299 1.5785656 0.13102865
5.8304462 1.4276667 0.1468727
-2.5527313 1.6383924 0.13989481
-0.67856371 1.6314591 0.0014083087
-0.48492032 1.6388772 0.10082867
4.0117216 1.7734679 0.056004733
5.6539054 1.6299293 0.14409395
-2.3374155 1.8282133 0.13622716
-2.122453 1.9994341 0.17324941
-0.6454007 1.8327879 0.18153954
3.8414834 1.935753 0.074054621
5.3692265 1.9624821 0.19865648
5.5072036 1.8374233 0.10230873
-2.2248192 2.0001926 0.069422692
-2.0978873 2.0191736 0.16339439
-1.9072869 2.1991818 0.15460938
-0.85960674 2.0841615 0.17462128
-0.7776531 2.0080302 0.075144641
3.4936454 2.0272229 0.11100927
5.176991 2.1809933 0.19168827
5.2892146 2.0482635 0.14860032
-1.868999 2.2400911 0.13230492
-1.7102726 2.392092 0.064111263
-1.2509434 2.2016888 0.094728291
-1.0620415 2.3164251 0.19139417
-0.97546852 2.2195621 0.18673363
4.9931207 2.3812804 0.18558982
5.0965543 2.2540708 0.14538524
-2.9991093 2.5680852 0.064019918
-1.711298 2.4170527 0.1137851
-1.4843438 2.5581112 0.15847489
-1.2862496 2.5493202 0.17131682
-1.1765058 2.4727197 0.15615198
4.9076219 2.4857063 0.1350667
-1.3539479 2.6129272 0.1696471
3.0539582 2.7646742 0.048424214
4.718976 2.694747 0.14688091
4.8060327 2.6153917 0.17985581
2.4296861 2.8319066 0.0095166266
2.774374 2.8688886 0.12606302
2.9807551 2.8661461 0.032365829
3.0276072 2.800107 0.015805352
4.53794 2.8999953 0.15145926
4.6078753 2.8328612 0.11850946
4.3579621 3.1100717 0.14738557
4.4191985 3.0899954 0.11409821
4.1880407 3.3843682 0.17639174
4.2404909 3.320492 0.099433705
4.5286989 3.3163657 0.15707636
4.1058388 3.4883811 0.12162551
4.3426948 3.471786 0.13045701
4.1972628 3.6453531 0.15646929
-7.1360402 6.2737079 0.027370036
-11.938775 12.479799 0.15727291
-11.283218 13.07734 0.19226348
-11.163713 13.193236 0.19461304
10.437613 -20.222704 0.38593337
7.5100813 -14.936372 0.21133515
8.5468731 -12.377518 0.37068722
8.6874027 -12.245965 0.38564917
20.306236 -12.388817 0.21713251
4.4372783 -11.9318 0.39621469
4.1699939 -11.720228 0.36065838
7.0440421 -8.6365919 0.39519626
6.7320757 -8.4509535 0.37647837
5.8289437 -8.2404804 0.33149484
6.2324591 -8.3138676 0.35106844
6.4926004 -8.3559809 0.36347097
4.3049455 -8.0782795 0.25931507
5.0568619 -8.1036282 0.2937308
5.4349284 -8.1661415 0.31216568
3.8729973 -7.8595767 0.23362687
4.2689662 -7.9755669 0.25485677
4.6678963 -7.9354715 0.27171475
5.232234 -7.9232903 0.22470245
3.4898462 -7.7773943 0.2137174
4.9700007 -7.7127624 0.22949263
7.341969 -7.0525894 0.3600859
-0.025296919 -6.880621 0.24189997
-0.24840662 -6.7985463 0.20001099
7.5749507 -6.6315651 0.225072
2.4489455 -6.4064422 0.36570448
2.8753488 -6.4483328 0.39387947
2.1057484 -6.3565998 0.34233087
-0.081128865 -6.1220112 0.20518064
-0.1476136 -5.8563347 0.35854903
3.9230886 -5.9097176 0.20357543
4.2988176 -5.8864899 0.20857161
4.7133217 -5.8583231 0.21429406
5.1234393 -5.8294854 0.22019686
5.5129099 -5.8075504 0.22615771
6.3462973 -5.95153 0.28541321
-0.88915044 -5.7186313 0.22478929
-0.50097227 -5.7836142 0.29386598
2.1486037 -5.6088548 0.27547711
2.5357356 -5.6001291 0.27841482
5.883316 -5.7823687 0.23190258
6.5014563 -5.6155014 0.26410517
7.8774533 -5.6819048 0.26606044
-0.95864737 -5.462801 0.28755623
-0.7136116 -5.5126157 0.28793567
-0.48477107 -5.5122433 0.28898001
-0.25985587 -5.5188155 0.27825236
-0.086258419 -5.5284228 0.28368759
0.014311444 -5.4664798 0.28648707
1.8940233 -5.5100617 0.28830183
2.3863833 -5.5021954 0.29698738
2.792556 -5.4795141 0.30281571
2.9292827 -5.5846667 0.28220922
3.1297421 -5.5074339 0.29623875
3.3437259 -5.5633974 0.28715211
3.5799978 -5.4038448 0.31598577
3.7552199 -5.5481405 0.29340008
3.9295752 -5.4943695 0.328473
4.1648974 -5.5360708 0.30072546
4.5590496 -5.5036082 0.30769959
4.9606123 -5.4834499 0.316149
5.3470249 -5.4519329 0.32444829
5.5683661 -5.4405298 0.32972562
5.6789751 -5.4258499 0.33210397
-0.98924136 -5.2390947 0.29036117
-0.52886289 -5.3224425 0.32411814
-0.27008647 -5.3014259 0.34683505
-0.11248431 -5.2896781 0.34376514
1.6934066 -5.255806 0.35377768
1.9252329 -5.2265215 0.35567513
2.1984196 -5.3715539 0.30423009
2.3473868 -5.2042065 0.36010581
2.5932775 -5.3458614 0.31143969
2.9954877 -5.3047776 0.31932497
3.3973718 -5.2558713 0.32803091
3.730247 -5.3867145 0.31883758
3.8284969 -5.2299252 0.33972168
4.0868411 -5.2918859 0.33746308
4.4043818 -5.3173013 0.33375165
4.8077908 -5.2743754 0.34378761
5.1805906 -5.2377143 0.35388267
5.4699221 -5.2014399 0.36182207
6.2742038 -5.3209934 0.24732217
7.3450274 -5.2596006 0.37510365
-1.280398 -5.1916595 0.27362669
-0.74585366 -5.0388846 0.3569617
2.3062265 -5.1824045 0.36212385
2.7269969 -5.1660066 0.36826181
3.1058311 -5.1228065 0.37732577
3.5254061 -5.1072407 0.38885203
3.9638088 -5.1167321 0.38726234
4.3301196 -5.1180205 0.37371653
4.540329 -5.0629869 0.37778506
4.9991207 -5.0525265 0.37252986
-2.6837125 -4.877224 0.32281396
-1.4497268 -4.9219394 0.23411891
-1.2250242 -4.9568896 0.27246323
5.1857071 -4.9194422 0.35644805
5.3619833 -4.917798 0.25765067
-2.9096215 -4.6758394 0.2709201
-2.7687056 -4.7705007 0.28906897
-1.1811324 -4.6041169 0.38857824
-3.1131456 -4.4479237 0.28178355
-1.0874841 -4.4442573 0.38419315
-3.315521 -4.2838082 0.23365356
-1.3373551 -4.3785267 0.33786592
1.3081969 -4.2224121 0.31693617
-3.5005898 -4.085237 0.27576745
-3.2558544 -4.1230021 0.30263698
0.061406285 -4.0339918 0.31443167
1.1705438 -4.0696554 0.28285882
1.2710798 -4.1515265 0.25226229
-3.6567805 -3.8546441 0.27534205
0.058569521 -3.9316368 0.28177437
0.24218926 -3.8284078 0.20157942
0.96860218 -3.8310699 0.22234233
1.0794779 -3.9368362 0.23812902
4.3492064 -3.8377554 0.28031048
0.30655086 -3.7246048 0.28080592
0.57836217 -3.6326442 0.21923025
0.71944678 -3.6466408 0.24535742
0.9022578 -3.7405481 0.2365011
4.2837253 -3.7585354 0.2431093
0.54007828 -3.4557335 0.27932569
0.63895053 -3.51531 0.21654454
4.0668321 -3.4717197 0.2933439
4.3749352 -3.500185 0.20620069
3.824975 -3.2389417 0.31463134
4.2690697 -3.3772194 0.28965971
-2.4647274 -3.0358329 0.3244417
-2.8683989 -2.9956396 0.22614357
-2.1844833 -2.9493763 0.38748702
-2.6392362 -2.7373631 0.32121745
-2.4096923 -2.7373054 0.36960855
3.3314519 -2.6432016 0.26335654
3.2796414 -2.467123 0.34253407
3.4069264 -2.5976036 0.26645136
3.1310878 -2.203866 0.31031531
3.3831189 -2.3433192 0.31846008
-5.1343246 -2.0089638 0.31171453
3.0234735 -2.0822206 0.24244042
2.8749304 -1.8479664 0.3136692
3.0272522 -1.9533643 0.25458443
-4.9062548 -1.6625085 0.29226828
2.6799989 -1.6936773 0.27240849
-4.7321615 -1.5212808 0.25275403
-4.5680704 -1.4304506 0.24856675
2.4883561 -1.4807711 0.21934552
-4.4914708 -1.3147231 0.25603002
-4.344243 -1.2747495 0.30719167
2.3014359 -1.2830298 0.25225943
-4.2233019 -1.1239402 0.33128119
-4.1363783 -1.0679709 0.30059889
-3.9261558 -1.1571532 0.33042702
-3.9400289 -0.88980097 0.28379178
1.9247013 -0.85848409 0.25080413
-3.838975 -0.79977363 0.28076369
-3.7225704 -0.69583702 0.26700047
1.6891986 -0.63154727 0.31850824
-3.5007119 -0.48697168 0.23889466
1.3023543 -0.44897285 0.22019248
-3.2887099 -0.29617113 0.24393491
5.9322567 -0.23674886 0.22534515
-3.082448 -0.11947467 0.26254141
6.1659222 -0.046906367 0.24644044
-2.8634849 0.089424595 0.22364511
-2.7049012 0.18995291 0.2547107
6.1979008 0.1106278 0.21599168
6.2281389 0.13352126 0.38621336
6.4223061 0.16077738 0.29677662
-2.6743062 0.25893927 0.24358539
-2.534133 0.35882342 0.20764846
5.1838255 0.27305752 0.25888985
5.4532804 0.23531669 0.31332725
5.799499 0.3395763 0.25880411
5.9424763 0.35760117 0.29280496
6.0130239 0.27853966 0.3368811
6.3384857 0.21431404 0.39202756
6.4659996 0.21351857 0.26876536
-2.4643764 0.50740367 0.23998936
-2.3125086 0.55745614 0.29794717
4.2281203 0.52357906 0.20316979
5.2159443 0.5465939 0.24885911
5.7472196 0.59047067 0.26518312
5.9095068 0.40043601 0.22218704
-2.4117031 0.7954855 0.20833625
-2.3229704 0.62446761 0.21858543
5.6836662 0.66607082 0.23265526
-2.5197284 0.84947723 0.21027243
5.5319839 0.91304845 0.29328746
-2.6717863 1.052654 0.24808754
-2.5960946 1.0144482 0.20516843
1.0268395 1.0040166 0.21385053
5.4544768 1.1204786 0.38086221
5.7415628 1.1099049 0.24527508
-2.8430305 1.29421 0.22093903
-2.768424 1.2759323 0.22600819
4.3557835 1.3409814 0.30035743
5.750493 1.2627894 0.3146933
-2.682435 1.4463066 0.2279768
-2.5651329 1.5738947 0.22644687
-0.42750949 1.5528492 0.31582671
-0.34624374 1.4706631 0.20704579
4.1197691 1.5865403 0.24366981
5.7093935 1.5623198 0.22215122
5.8178635 1.4170572 0.20916824
-2.4612632 1.6587511 0.21388435
-2.3482437 1.7657675 0.24543408
-0.60637158 1.7784737 0.21545784
-0.52124983 1.6613518 0.27891994
5.5294628 1.7749574 0.21558429
5.6431932 1.6526518 0.2052546
-2.2585912 1.8347819 0.20880571
-2.1359406 1.9551151 0.24092069
-0.80544919 1.9915842 0.26394236
-0.73292881 1.8912123 0.21175662
3.8274679 1.8915516 0.32589921
5.3375115 1.9941385 0.23978531
5.448236 1.8403388 0.2240414
-2.0421782 2.0256562 0.21209833
-1.9271775 2.1366467 0.23980013
-0.87617165 2.0387635 0.32324094
3.6378293 2.0840554 0.3153249
5.1504211 2.1869559 0.23723066
-1.8389572 2.2304308 0.20203525
-1.6658351 2.3656006 0.25462231
-1.0745463 2.288012 0.21771935
5.1616006 2.2772934 0.33312431
-2.9474864 2.5418026 0.29039514
-1.6243509 2.4223006 0.20362397
-1.4682004 2.4872055 0.25480208
4.9522943 2.4360461 0.29084036
-3.2282653 2.7315145 0.34292847
-3.1185398 2.697366 0.36891595
4.6811352 2.7008667 0.23584236
-3.3090312 2.8462775 0.33278605
2.6217201 3.126462 0.24414642
4.1255236 3.3895864 0.31330061
4.2205367 3.306304 0.20669878
3.938679 3.5825214 0.26038489
4.672401 3.4511306 0.28657976
3.8650613 3.7089097 0.29826632
4.5159578 3.7969177 0.3063167
-9.3677845 7.2605 0.38097689
5.7726436 -12.615371 0.5694232
5.9964061 -12.725383 0.59782147
5.6291795 -12.528313 0.55105054
5.2476315 -12.331164 0.50201929
4.6327782 -12.039167 0.42200157
4.8999772 -12.16163 0.45693144
8.8671284 -12.072758 0.40455171
9.045517 -11.882525 0.4229717
10.697453 -9.8670759 0.56710815
3.3333564 -9.0934372 0.58506572
3.0452986 -8.9968119 0.5401088
8.7828741 -8.8238344 0.47355229
7.7885756 -8.6081429 0.42574972
8.1974764 -8.690362 0.44527012
8.5921068 -8.79772 0.46487904
9.6535244 -8.7882805 0.49183187
7.3808188 -8.5165644 0.40590841
7.4101744 -8.5583696 0.40837598
8.3400002 -8.2067804 0.43646485
4.3881888 -8.0472574 0.50335371
5.3342853 -8.1192904 0.48628286
4.6063423 -7.8255177 0.55811059
8.6005068 -7.7562342 0.41592476
4.4597354 -6.6102204 0.50174493
4.8395638 -6.6354671 0.52738214
5.2620072 -6.6547494 0.55560535
5.6736913 -6.6998186 0.58479458
3.265321 -6.4882421 0.42004544
3.677511 -6.5310502 0.44803292
4.0095558 -6.5484204 0.46978635
6.3116479 -6.0019293 0.58783102
10.421983 -6.1704373 0.51080763
1.8260986 -5.5145702 0.47739208
2.1998289 -5.5298624 0.50557262
2.6494386 -5.5447626 0.5405196
2.9990685 -5.545949 0.56771904
5.9684877 -5.5785956 0.54179686
6.2091365 -5.3372602 0.52731311
-0.40045783 -5.1151071 0.42186138
-0.14797032 -5.1536822 0.46771577
4.6960521 -5.0173674 0.40138495
5.3460307 -5.0076017 0.42033353
-0.87532675 -4.844399 0.42387378
-0.68018669 -4.8978047 0.43067327
-0.54213548 -4.8608694 0.42286909
-0.384671 -4.9103727 0.42735448
-0.13999251 -4.8831544 0.44076505
0.0058175959 -4.8672028 0.41697273
1.5399269 -4.8529134 0.5736019
1.7304575 -4.8905072 0.42657971
2.0254047 -4.8469305 0.44242874
2.2451952 -4.9314928 0.44246015
2.4072814 -4.8001928 0.45057097
2.619467 -4.864635 0.43433157
3.0237224 -4.8364611 0.44526088
3.3167915 -4.828876 0.45534211
3.8936346 -4.9898877 0.40214902
4.3211131 -4.9969602 0.41883498
4.684268 -4.8754697 0.42735246
5.2942204 -4.8509512 0.58228856
6.5922594 -4.818634 0.45242733
6.6375408 -4.8127279 0.42967823
6.9570127 -4.9877048 0.40700847
-2.8909278 -4.6474648 0.49380058
-2.6236145 -4.6570654 0.46770191
-0.90479386 -4.6609831 0.40526927
-0.50927097 -4.7092533 0.42725557
-0.31588724 -4.7089725 0.46878961
-0.1582194 -4.7133055 0.46502137
1.5462111 -4.6747041 0.46893024
1.7958276 -4.7390718 0.44350255
2.2109454 -4.7063026 0.45504013
2.70948 -4.6859069 0.46297204
3.238239 -4.7254276 0.47737908
3.473736 -4.7956986 0.45905852
3.6092858 -4.6194587 0.48702541
3.8392112 -4.7387223 0.47037399
4.2199998 -4.6830149 0.48391527
4.6610532 -4.6524982 0.50357485
-3.0632133 -4.4355898 0.48775834
-2.9237702 -4.4918256 0.48983073
-2.5393651 -4.5851059 0.49309087
-2.320708 -4.4982257 0.52514827
-0.69961542 -4.5170755 0.45357808
-0.55156428 -4.4274211 0.54071599
-0.33079737 -4.4866724 0.53057152
1.9086705 -4.5903912 0.4912824
2.304471 -4.5528603 0.50183916
2.6903682 -4.5064592 0.51337987
3.0723917 -4.4906845 0.51152503
3.3978562 -4.5024605 0.4935872
3.7780986 -4.5052891 0.50105447
4.0348763 -4.5360217 0.50302094
4.4680567 -4.4438567 0.52087706
4.9340057 -4.5717869 0.51269913
5.3927875 -4.5613875 0.42879966
-3.2694163 -4.234148 0.49255487
-3.1709003 -4.3812237 0.47316855
-2.8590105 -4.2228508 0.52751768
-2.5231578 -4.2531538 0.52964783
-0.828574 -4.3333912 0.53184623
-0.64854372 -4.3821335 0.54061955
-0.4818922 -4.3269 0.52891904
-0.36998537 -4.236763 0.57673925
-0.14400333 -4.3111978 0.52735132
0.034077626 -4.2063189 0.51276791
1.333915 -4.237956 0.53806198
1.451028 -4.3852401 0.52793241
1.6864909 -4.3326874 0.55386001
1.8461466 -4.2961698 0.55218041
2.0461607 -4.2720537 0.56251913
2.2525449 -4.339252 0.5513916
2.4451265 -4.2575417 0.56650925
2.6284926 -4.2812271 0.56344062
3.1170969 -4.2031436 0.58330965
3.4988494 -4.3559256 0.54017657
3.6542513 -4.2858629 0.55531055
3.9221308 -4.3199887 0.54384452
4.1932683 -4.3439007 0.52830058
4.3175755 -4.2618566 0.56361938
4.553081 -4.2418089 0.55968511
4.7283401 -4.3910456 0.53266126
5.7987075 -4.2364454 0.59075671
6.0493693 -4.3989778 0.56592172
-3.4443693 -4.0531192 0.47933766
-3.3078101 -4.1341281 0.50444174
-3.1608291 -4.0391626 0.57921976
-2.6523921 -4.0721626 0.59687459
-2.2982306 -4.1474695 0.58602452
-2.095948 -4.1765656 0.56397313
-1.0545886 -4.0714445 0.47310358
-0.83316356 -4.1864352 0.4967739
-0.64468676 -4.0845504 0.53390872
-0.069505997 -4.1667233 0.56529033
0.097241186 -4.003365 0.53447729
1.1394925 -4.0639253 0.54874432
1.2355605 -4.0943084 0.48259392
1.496459 -4.1039033 0.59058136
2.2003684 -4.1413851 0.57596743
2.6786475 -4.1278729 0.59284568
2.8780904 -4.1274471 0.59403461
4.3373976 -4.0365005 0.56410706
5.4772739 -4.0900745 0.59806269
-3.6864426 -3.846791 0.49413049
-3.3205652 -3.9445632 0.56264132
-2.5432029 -3.9951315 0.59459507
-1.2718939 -3.94941 0.4206284
-0.38263533 -3.8476877 0.59366953
0.10025564 -3.9350581 0.55613226
0.2820968 -3.8687642 0.55205071
0.95558906 -3.8244483 0.51375443
1.1025548 -3.9767525 0.56690162
4.3220491 -3.8472769 0.57364959
-2.9793818 -3.625737 0.41249055
-2.7803497 -3.6887937 0.41670907
-1.0464133 -3.7194293 0.55270994
-0.96524495 -3.6366122 0.53068244
-0.77666825 -3.7848012 0.5698387
-0.58039081 -3.7091336 0.59959173
0.29736909 -3.7768562 0.57738084
0.40269256 -3.7523756 0.571316
0.70579141 -3.6472216 0.54710704
0.89704221 -3.7789297 0.51123077
4.1555572 -3.6271355 0.47722733
4.2530942 -3.7430162 0.51610035
-3.3969724 -3.4750321 0.40471745
-3.1697128 -3.5518718 0.40786111
-1.2114211 -3.5765452 0.48673192
0.48216194 -3.5763164 0.58707196
0.71063966 -3.5648422 0.58243394
3.9381232 -3.4085383 0.54310989
4.1020923 -3.5743909 0.55728906
4.2973943 -3.539314 0.58818245
-2.5490353 -3.2934844 0.5041827
-2.355511 -3.3555241 0.50672108
-1.1678586 -3.2835553 0.54736626
-0.90115821 -3.3463874 0.5937525
3.799396 -3.2773936 0.5769152
3.9341509 -3.3631742 0.51498967
-2.9442551 -3.1273348 0.49731123
-2.6612418 -3.0583756 0.54123408
-2.2699468 -3.0071256 0.57950962
-2.0390384 -3.111361 0.58617955
3.7048411 -3.1564269 0.47946817
4.0454998 -3.189795 0.51468253
3.4302559 -2.831059 0.51848257
-2.0396225 -2.7194543 0.46089074
-1.6239706 -2.6404362 0.56704032
-1.438997 -2.6879852 0.58715034
3.3351099 -2.7078035 0.51153845
3.4545925 -2.637465 0.544213
-2.0015116 -2.5698752 0.53949678
-1.9629956 -2.4750724 0.51188314
-1.7748928 -2.5413244 0.53198361
-5.0162153 -2.2210886 0.57706785
-4.9836617 -2.277252 0.58553946
-2.2443075 -2.3048356 0.46580055
3.1099067 -2.2165165 0.42497212
3.3194785 -2.3253434 0.59432817
-5.0602603 -2.0300362 0.59676439
2.9650149 -2.0763795 0.58054078
3.0283716 -2.1370885 0.5878703
-4.9832726 -1.9051695 0.54772639
2.7792952 -1.8569005 0.52615684
2.9060378 -1.9956118 0.58146358
-4.9529896 -1.7694079 0.48501754
-4.7787905 -1.6113539 0.5460586
2.5706248 -1.6378466 0.58326107
2.6683049 -1.7121912 0.58032471
-4.5332155 -1.5073971 0.54984641
2.4420061 -1.4807973 0.54723132
-4.4790926 -1.3818029 0.51294959
-4.2884483 -1.278141 0.51322806
2.2636316 -1.290144 0.54172307
-4.2019458 -1.1657702 0.57015324
-4.0895176 -1.1038128 0.56730205
2.0667138 -1.0634139 0.50541008
1.8895895 -0.86658627 0.47917315
-3.6809316 -0.73677158 0.5645225
1.6897422 -0.68132514 0.50385237
1.811295 -0.762371 0.47812518
-3.5047524 -0.54091924 0.59153312
-3.3497994 -0.43293869 0.5821569
-3.2617767 -0.32120508 0.54424649
5.977293 -0.25370079 0.58878112
6.0572248 -0.21543714 0.59023321
-3.0692735 -0.1331632 0.55380976
6.2665725 -0.024279732 0.56332719
-2.8598826 0.0093771517 0.58579755
-2.7305551 0.12557855 0.55154932
6.4708624 0.15056388 0.58260959
-2.6418283 0.21265876 0.56031048
-2.5147998 0.30796379 0.56296098
5.9013495 0.35787654 0.55577385
6.0091848 0.24233134 0.57723582
-2.4526024 0.5678739 0.5651499
-2.3171618 0.5635336 0.5367226
5.0822282 0.57043415 0.47393569
5.4884672 0.48738715 0.40170854
5.712028 0.57195461 0.53921109
5.8174667 0.45778412 0.55628777
-2.4467304 0.71889997 0.57890505
4.978683 0.64493704 0.45244673
5.2103081 0.63295561 0.48710516
5.5732927 0.74730879 0.57198358
5.845242 0.64246625 0.57841897
-2.6274428 0.96600801 0.55633157
5.5653715 0.85666645 0.50893426
5.6342144 0.86781818 0.54332942
-2.8269997 1.1616051 0.53247827
5.7647681 1.1535219 0.56286556
5.8235068 1.1665021 0.57025003
-2.8388205 1.2304395 0.58288598
-2.7527053 1.3890692 0.47221899
4.3421855 1.3760641 0.45828626
5.5393558 1.3406372 0.47281793
5.8679395 1.2034161 0.53848511
-2.5275841 1.5937049 0.52223831
-0.44087175 1.541802 0.41923809
-0.37712213 1.4738221 0.40764001
4.1470718 1.5924321 0.40624407
4.2676945 1.4841052 0.43639216
5.6913614 1.5153629 0.51527953
-2.4635706 1.6662028 0.44728023
-2.2539194 1.7833021 0.54797417
-0.66248608 1.7935467 0.46047881
-0.53859115 1.6486802 0.43267497
5.4998164 1.7198609 0.53863496
5.7108469 1.6894754 0.46669325
-2.2352002 1.8098042 0.57554412
-2.0767155 1.9881519 0.46866953
-0.82221001 1.972551 0.49359301
-0.73033679 1.8721085 0.46317631
5.3128047 1.9460962 0.54456204
-2.0195181 2.0165753 0.50335485
-1.8835651 2.1304064 0.555911
-1.0295948 2.1935885 0.55098087
-0.90679544 2.0609796 0.50678271
3.6462102 2.0963707 0.43006894
5.1302662 2.1661038 0.49323547
5.2196789 2.0309367 0.58038759
-1.6358376 2.3561749 0.56438476
-1.0848267 2.2614441 0.53602606
4.9646306 2.3508248 0.57017845
5.0410781 2.2327836 0.54674959
-3.070663 2.575666 0.5059213
-2.9909732 2.5425935 0.50536883
-1.4481204 2.4971542 0.56431842
-1.2613747 2.4505482 0.54678267
-1.1686785 2.4233785 0.42612752
4.7758656 2.5791378 0.55967784
4.881866 2.430793 0.53220135
-3.2655602 2.7652338 0.52689189
-3.0976586 2.6309855 0.54259133
4.5680332 2.7929857 0.54843491
4.678164 2.6720181 0.51811516
-3.3029261 2.8374631 0.49701053
4.4895339 2.8795393 0.51279753
4.324975 3.0915236 0.51386964
4.4319077 3.1565125 0.55002064
4.1684313 3.3479562 0.5000686
4.2201328 3.3107541 0.52502584
4.5142708 3.3331451 0.533014
4.6341901 3.356951 0.56922936
3.9889898 3.5302668 0.47874472
4.0207796 3.4910643 0.53077739
4.2528334 3.5312991 0.5838511
4.7371778 3.4717469 0.41279846
3.7765374 3.743974 0.44369966
3.8773479 3.6430957 0.523467
4.1569242 3.7039278 0.56399155
3.4343283 3.9952745 0.59919155
3.7016728 3.856854 0.43800545
-7.1518278 5.3967896 0.5541867
-7.1888165 5.4744372 0.56186712
13.197812 -16.339163 0.72248483
6.6212811 -13.075932 0.67662776
6.3742867 -12.94443 0.64562881
11.744647 -10.934138 0.6425451
4.3558602 -9.4612122 0.74318147
4.5389576 -9.5312166 0.77128041
3.7401688 -9.2467651 0.64862871
4.1149683 -9.379178 0.7063849
12.559039 -8.7243013 0.62182254
12.843752 -8.4673824 0.62444586
5.0254889 -7.9159837 0.77647221
4.8056607 -7.7224731 0.61248314
12.367677 -7.6892314 0.65191531
2.8280137 -7.4367566 0.73387218
3.2138746 -7.5227842 0.79989004
2.4876885 -7.3680625 0.67593312
6.7297516 -6.8110046 0.66013366
6.0698104 -6.7309923 0.61235422
6.4482279 -6.7912445 0.64051038
6.8571653 -6.7847705 0.66709596
7.4971318 -6.693152 0.68607283
2.2235885 -6.2149334 0.78899229
1.9997125 -6.184639 0.74807417
6.4206491 -5.6728196 0.70603323
3.4035711 -5.5498676 0.60041195
3.8963511 -5.5437841 0.64060605
4.0504432 -5.5532284 0.65437621
4.2354531 -5.5499601 0.66988653
4.6153488 -5.5471363 0.70254862
5.0310483 -5.5387168 0.73855948
5.2678251 -5.5278168 0.75886852
5.4488282 -5.531445 0.77554411
5.7220435 -5.5241942 0.79986858
6.1741467 -5.3820214 0.66804886
1.9044878 -4.8608594 0.60493308
2.2785268 -4.8691883 0.63896614
2.7137237 -4.8340869 0.67562336
3.1784451 -4.8160677 0.71981537
3.5177798 -4.7839985 0.75145841
3.904774 -4.746438 0.78898573
5.347949 -4.5873575 0.75360847
1.3287834 -4.3417258 0.6515519
1.5194466 -4.3560252 0.67145967
1.6822501 -4.3342576 0.68364829
1.9712764 -4.3131008 0.7098999
2.4125307 -4.2715788 0.75204194
2.798471 -4.2409129 0.79326791
-2.7506404 -4.0364504 0.60947222
-2.1376328 -4.1039767 0.60017103
-1.8800104 -4.0610619 0.62275147
-0.26659682 -4.1464677 0.60423851
1.1778995 -4.0343127 0.6469304
1.8878338 -4.0919428 0.60435605
2.2837939 -4.0163012 0.61678195
2.8654721 -4.0093765 0.6051057
3.2668433 -4.0358791 0.61169308
3.4884989 -4.1296434 0.60018259
3.7795141 -4.0721707 0.61512357
3.9515569 -4.0395842 0.62482959
5.4536815 -4.0946298 0.61852735
-3.2909436 -3.8466382 0.63455266
-2.9351971 -3.8790796 0.61174649
-2.5349362 -3.9141762 0.60025746
-2.1460783 -3.8706465 0.61529547
-0.7734555 -3.9059708 0.61778575
-0.45701829 -3.8983276 0.62938094
-0.20123865 -3.9284658 0.6232909
-0.11454011 -3.8783996 0.64065576
0.085586727 -3.836849 0.64354283
0.95429939 -3.8971348 0.6181975
1.0513314 -3.8025501 0.62862509
1.2605616 -3.9447346 0.60301101
1.5149324 -3.8461769 0.64585119
1.8926164 -3.9081333 0.63913536
2.3243055 -3.8449221 0.65766913
2.6969795 -3.9265621 0.63501638
3.0666745 -3.8843818 0.63994014
3.3980989 -3.8686893 0.63237566
3.6615977 -3.9366832 0.63209325
4.0359359 -3.8410323 0.65400201
5.4891362 -3.8978593 0.65608412
-2.8284531 -3.6441424 0.63866693
-2.7628298 -3.6775053 0.63719904
-2.5201504 -3.7917867 0.63408065
-2.3229179 -3.6324425 0.68984449
-2.1619179 -3.6833541 0.67003113
-1.9083047 -3.762641 0.67068279
-1.7277849 -3.6748931 0.69147277
-0.60676837 -3.7738755 0.666134
-0.34135216 -3.7959633 0.66332066
0.74138308 -3.6373019 0.70214272
1.1013064 -3.7106562 0.66605198
1.3262861 -3.6688628 0.77283221
1.493616 -3.733223 0.7117421
1.7953467 -3.7501011 0.65875596
1.921795 -3.6315205 0.69613165
2.0693994 -3.7877231 0.66262436
2.2828507 -3.7154903 0.67940843
2.4668698 -3.6214783 0.69403273
2.7462718 -3.7527406 0.67740685
3.132267 -3.6502283 0.6980716
3.4944754 -3.7416847 0.67296171
3.7557404 -3.772856 0.65378571
3.9626868 -3.6106579 0.63663262
5.1489496 -3.7613442 0.70015997
-2.8202181 -3.4590619 0.71692872
-2.6997046 -3.4771905 0.70943964
-2.5388732 -3.4852097 0.69454312
-2.092207 -3.4292011 0.70434523
-1.7184359 -3.4327378 0.73781681
-1.5367901 -3.4256694 0.74435282
-0.72187209 -3.4296372 0.72581524
-0.51459205 -3.4386654 0.71150684
-0.32595742 -3.4666498 0.72979033
-0.14002047 -3.4759753 0.7273128
0.10771805 -3.4680042 0.72025466
0.32863668 -3.5836003 0.6741271
0.52371967 -3.5176735 0.65424925
0.63133752 -3.4615808 0.64229244
0.83278823 -3.5048094 0.66076171
1.2763211 -3.5578561 0.71680552
1.4657366 -3.5067039 0.71539629
1.6547745 -3.4540215 0.72414809
2.1243474 -3.4670358 0.73442596
2.2960942 -3.5099506 0.72431022
2.5287631 -3.5099602 0.72158003
2.6618621 -3.430541 0.73864466
2.9075472 -3.5828431 0.70503032
3.043252 -3.4284847 0.72630221
3.3117676 -3.5320373 0.71978593
3.5496776 -3.535202 0.72482437
3.9275446 -3.4943125 0.71604347
4.7187552 -3.4950671 0.73029983
4.8645797 -3.5768692 0.70678729
-2.8459761 -3.3830211 0.7171973
-2.4147909 -3.312675 0.71437424
-2.2781465 -3.2364326 0.77581817
-2.0989718 -3.2598836 0.75629604
-1.8585225 -3.3408246 0.74578416
-1.7520103 -3.3612871 0.75058341
-1.4537156 -3.3361681 0.76839775
-0.96381807 -3.2741947 0.6483826
-0.70540529 -3.3211164 0.66035199
-0.41079482 -3.3688042 0.75469249
-0.34083614 -3.3575585 0.72485858
-0.12460065 -3.3609812 0.75860846
0.27552491 -3.3527119 0.75846803
0.50453454 -3.2942948 0.77293468
0.73360735 -3.3684831 0.72425783
0.98784614 -3.3719661 0.74463487
1.0678017 -3.3120856 0.7659294
1.267494 -3.2336836 0.78208905
1.5291078 -3.3244214 0.75697303
1.8479058 -3.3254039 0.7684164
2.1418214 -3.3281455 0.7581768
2.3109839 -3.2778046 0.77335685
2.4726942 -3.2804825 0.77325183
2.7080724 -3.3264995 0.76572573
3.0654345 -3.2924843 0.77032661
3.3989537 -3.3174443 0.7524724
3.501039 -3.3242378 0.76250327
3.7660463 -3.2507417 0.69874406
3.8896537 -3.3047395 0.70166075
4.5082922 -3.3131227 0.77469194
-2.4076431 -3.127605 0.77810711
-2.2608547 -3.1948307 0.76079363
-2.0932746 -3.1120834 0.7703172
-1.7151999 -3.0257156 0.79647541
-1.427126 -3.1242738 0.79327118
-0.95505643 -3.114326 0.6707567
-0.7029745 -3.0029109 0.71329027
-0.44708201 -3.1081972 0.76172608
-0.21935087 -3.0560203 0.75546366
0.11300518 -3.1100106 0.76778412
1.1253693 -3.1871734 0.78041649
1.3960799 -3.1333239 0.79239672
2.3433692 -3.1880674 0.78624743
2.5895286 -3.1462893 0.79220432
3.4470718 -3.1628737 0.79254687
3.7315614 -3.1958401 0.60297519
-1.8643486 -2.835535 0.64388567
-1.0947948 -2.8938375 0.67240828
-0.86316174 -2.9652529 0.66109431
-0.62234062 -2.9630482 0.74080676
-2.202374 -2.6976776 0.66574246
-2.1180043 -2.7393076 0.64267892
-1.8109262 -2.6084108 0.70444429
-1.4465088 -2.7512038 0.71170521
3.3143177 -2.7167969 0.6708833
3.4422569 -2.6613915 0.69142348
-4.8525734 -2.4598613 0.66801816
-4.7980804 -2.5584555 0.70074928
-2.1361547 -2.4500239 0.70091188
-1.9182625 -2.5296643 0.69523424
3.2796931 -2.5261331 0.74229038
-4.9623952 -2.3315616 0.64032686
3.1449988 -2.3097546 0.72141397
3.2362337 -2.385448 0.7191
-5.1460824 -2.0695136 0.62936819
2.9879684 -2.1154623 0.65285683
-5.0265322 -1.9008553 0.6096648
-4.9795628 -1.9514781 0.61984432
2.7507467 -1.8501829 0.64337599
2.8501971 -1.9274647 0.64552683
-4.6783814 -1.6978737 0.66679758
2.5607853 -1.6733692 0.76917303
2.6187222 -1.7085589 0.66862917
-4.4940424 -1.5062207 0.66241622
-4.2077026 -1.4442781 0.7070539
2.3771775 -1.460294 0.62065381
2.4404292 -1.5132029 0.66606081
-4.3328705 -1.3275912 0.63919097
-3.8344562 -1.3131605 0.77990705
2.1580813 -1.2553437 0.79615951
-4.0694141 -1.1372399 0.66983634
1.9672623 -1.0387114 0.7293303
-3.8810861 -0.91491491 0.65804118
1.7825361 -0.8320753 0.65805984
-3.7228646 -0.71962512 0.61750597
-3.4577332 -0.55238199 0.64540088
-3.3067036 -0.39932248 0.60048252
-3.1385791 -0.26674721 0.69390416
5.9332185 -0.32171911 0.64570063
6.0272574 -0.27571338 0.76988971
-3.0451829 -0.16745375 0.61890709
-2.908067 -0.044704776 0.62354356
6.145617 -0.14054972 0.64666396
6.218998 -0.056167901 0.63711995
-2.8331399 0.029839061 0.60280871
-2.7481461 0.078999266 0.70193386
6.1856766 0.12438259 0.65067941
6.4340792 0.12541015 0.65373403
5.9033384 0.33857274 0.66531169
6.0111823 0.21701965 0.65537649
-2.3374276 0.45842233 0.60884172
4.9653964 0.58252746 0.63471067
5.1018362 0.51226521 0.72682369
5.690136 0.52625555 0.66121328
5.8384023 0.41422665 0.6350531
4.9484634 0.76120168 0.73767591
5.0971513 0.64869177 0.71427202
5.5454793 0.78087121 0.63582641
5.6308417 0.77550215 0.61228001
-2.6585894 0.97399592 0.73857582
5.5590367 0.9280318 0.71154791
-2.8453882 1.1663682 0.74324471
-2.7578526 1.1726985 0.64752293
5.3771653 1.1493386 0.76217949
5.4710279 1.1428651 0.78230286
5.7504902 1.0452404 0.61470294
5.8058658 1.12395 0.63317484
-2.7206879 1.3406305 0.69896424
5.7617311 1.3600154 0.6683315
-2.6381528 1.4212484 0.61534232
-2.512157 1.5489504 0.62301183
5.6398025 1.5327759 0.69788551
-2.4149776 1.61571 0.63161987
-2.3235977 1.6975869 0.62652302
5.455955 1.7557186 0.63113046
5.6135602 1.6197491 0.61405194
-2.0727394 1.935599 0.6501019
-1.9916501 1.9812721 0.6603387
5.2655587 1.989234 0.62978166
5.4212394 1.8156204 0.60104185
-1.7827432 2.1804838 0.60890234
5.1419702 2.1359868 0.66192377
-1.6806744 2.2690258 0.61177069
-1.5056622 2.3683167 0.62216914
5.0724378 2.2805872 0.61890626
-1.3051 2.5053563 0.6141845
4.784771 2.5431306 0.64316714
-3.2975008 2.6908891 0.70345145
4.1352239 3.1680837 0.75846648
4.6753006 3.3901286 0.60925007
4.0139513 3.4226267 0.73882699
4.5109162 3.4402261 0.62369752
3.7379034 3.6535139 0.6862154
3.9328506 3.7745583 0.60004199
3.6851754 3.829766 0.60706282
-12.038596 12.406461 0.75912642
-11.911075 12.535116 0.77029181
-11.346026 12.963772 0.79538995
-11.222742 13.073812 0.79758126
14.820732 -17.665625 0.84367847
15.44839 -17.027666 0.89991188
15.65805 -16.816738 0.91771722
15.788758 -16.678295 0.92863846
16.002457 -16.473007 0.94591832
16.216904 -16.260872 0.96288085
16.401575 -16.068411 0.97703981
16.554031 -15.92561 0.98849225
14.926142 -14.068178 0.87154603
8.4981508 -12.412471 0.8906045
8.6361952 -12.268417 0.90429294
8.7846136 -12.124038 0.91888118
8.9682913 -11.937019 0.93651652
4.7781572 -9.6248846 0.80796158
9.5748186 -8.841074 0.94074047
5.3852477 -8.288538 0.83928609
5.2012076 -8.0979967 0.80716074
8.5171299 -7.8186555 0.81291699
3.6025906 -7.6189332 0.86681354
3.9839609 -7.7223892 0.93290269
9.8399868 -6.9887156 0.87827903
2.3281543 -6.2061687 0.80580282
2.6332107 -6.2779589 0.86487353
3.0029719 -6.3313293 0.93331146
2.3369198 -5.4316411 0.93955135
2.535326 -5.4349384 0.97691023
7.595439 -5.4214416 0.96880275
7.6661224 -5.4315801 0.97638327
1.6979641 -5.3709955 0.81439936
1.9557378 -5.3992634 0.86505401
2.0567641 -4.8071737 0.99232721
1.4329669 -4.7519956 0.86038101
1.6405152 -4.7520857 0.90059161
4.0811553 -4.7236242 0.80595541
4.2883863 -4.7569275 0.83286822
4.7670393 -4.6652703 0.87816483
5.0288467 -4.6463857 0.90698212
1.3470637 -4.2554603 0.9214133
3.0876157 -4.1993608 0.82323724
3.2396116 -4.1686411 0.83846653
3.6212811 -4.1164193 0.88209838
4.0272818 -4.0479579 0.92930681
1.0276241 -3.9926786 0.80256629
1.389364 -3.8283367 0.99357164
2.0893855 -3.8401148 0.80584776
2.4211328 -3.8040044 0.84419638
4.28018 -3.9190507 0.94892526
0.97679996 -3.7135959 0.90165162
2.7322917 -3.7354054 0.87693423
2.9092684 -3.6882927 0.89573938
3.3101664 -3.6048782 0.9454034
4.169807 -3.7036498 0.80637318
4.2249823 -3.6092896 0.97709572
1.7010502 -3.4783328 0.82902622
2.135437 -3.430541 0.88377219
3.5800138 -3.5430846 0.98016709
3.7310734 -3.4987586 0.99898344
4.0450349 -3.400702 0.92242002
-1.3871822 -3.2035241 0.80599964
0.63476211 -3.2736976 0.85232902
0.97105092 -3.258759 0.8121767
1.2428422 -3.2413225 0.84241581
1.4405278 -3.2131345 0.86339539
2.3721988 -3.38009 0.91168576
2.5516498 -3.3418651 0.9347325
2.9303355 -3.2364767 0.9827413
-1.82082 -3.0141373 0.81334215
-1.5185791 -3.1173623 0.80114853
-1.3854934 -3.0657675 0.81900752
-0.70225203 -3.0345447 0.81484872
-0.49694943 -3.0547082 0.81885844
-0.29783973 -3.0453243 0.8143099
-0.10320465 -3.0827749 0.80910444
0.1513882 -3.0645237 0.81615973
0.32168284 -3.1276584 0.83534956
0.5497396 -3.0547159 0.82065606
0.6747207 -3.0418587 0.87211818
0.90203327 -3.0359349 0.84553826
1.0765591 -3.1177478 0.80451328
1.3203062 -3.0551281 0.82081538
1.4605517 -3.0407257 0.82042122
1.6929169 -3.1356869 0.8583492
1.9250343 -3.1968143 0.80448675
2.0541101 -3.0643685 0.82728249
2.4447293 -3.0933096 0.81100202
2.6461174 -3.0456479 0.87813109
2.8773048 -3.1469495 0.80131316
3.1971793 -3.0351906 0.82754451
3.5720723 -3.0654249 0.90632755
4.0615892 -3.0433714 0.82084912
4.3197851 -3.0856524 0.80726331
4.6254983 -3.1916966 0.80889094
-2.0052779 -2.8735175 0.83620971
-1.8514681 -2.8478975 0.84443229
-1.7010992 -2.9218354 0.83128899
-1.4751304 -2.9668148 0.83466327
-1.3643411 -2.941781 0.8524403
-1.1672974 -2.9227419 0.85751724
-0.92364329 -2.9477036 0.85608697
-0.4408806 -2.9863629 0.85194004
-0.15155965 -2.9857249 0.84433162
0.29641035 -2.9671271 0.86289096
0.54131627 -2.9617071 0.89174497
0.68615234 -2.9532976 0.92306513
0.98522401 -2.9818196 0.84182549
1.0588502 -2.9200823 0.86677474
1.5028083 -2.9177814 0.8664791
1.7194734 -2.9311028 0.84554482
1.8758533 -2.9109852 0.88216078
2.1659946 -2.9281747 0.89407063
2.3032284 -2.8979628 0.86019337
2.5841231 -2.9650517 0.83257377
2.7080269 -2.8538742 0.86819553
2.9910963 -2.9963741 0.82319546
3.0707524 -2.8910542 0.85537171
3.2480435 -2.928303 0.83408821
3.6236916 -2.97841 0.85852993
3.9876816 -2.9189079 0.8824355
4.1512904 -2.9376488 0.84007341
4.2275329 -2.9987977 0.83600289
-1.9420207 -2.6881671 0.89302695
-1.7528428 -2.6766396 0.8820405
-1.5397691 -2.7888165 0.86549801
-1.3431901 -2.7527497 0.87429082
1.6139088 -2.7188876 0.88905215
1.8484675 -2.6790981 0.89722329
2.0964863 -2.722049 0.89377707
2.4808254 -2.7065279 0.89998269
2.6034813 -2.6060996 0.91745371
2.8893147 -2.7305837 0.88847315
3.3525658 -2.7032325 0.87184411
3.4814851 -2.6854482 0.86694545
-4.8329649 -2.5165174 0.86286461
-4.7974601 -2.493145 0.85632241
-4.5668344 -2.4400587 0.88369876
2.2425642 -2.5355389 0.93020862
2.6580484 -2.4943464 0.94190145
2.9202836 -2.5493245 0.92914343
3.0492327 -2.4736948 0.9376266
3.2455678 -2.4925015 0.89115536
-4.9605432 -2.3007269 0.89364719
-4.2898006 -2.2513785 0.94046164
2.7510753 -2.2910037 0.9802351
2.9414303 -2.316469 0.97165257
3.1024759 -2.2775922 0.95474982
3.2042475 -2.37275 0.92049968
-5.073143 -2.0753546 0.92815351
-4.9948158 -2.1908031 0.91161895
-4.6087713 -2.1777077 0.99101424
-4.5269275 -2.1171951 0.96727353
-4.1166196 -2.1329336 0.95702511
2.9192493 -2.1071916 0.93802482
3.0116503 -2.1519341 0.84974772
-4.9227762 -1.9328961 0.91283518
-4.7333374 -1.8571186 0.9576062
-4.5727348 -1.8500464 0.96696895
2.7268579 -1.8712441 0.90422064
2.5741742 -1.7019075 0.87392861
2.6465104 -1.7609758 0.85309696
-4.5013933 -1.5630404 0.96747071
2.328845 -1.4544457 0.89736116
-4.0824628 -1.2071477 0.98154783
-4.0709925 -1.1725938 0.95184493
-3.934226 -1.0379778 0.99752456
-3.8572993 -0.97866958 0.96869636
-3.7392025 -0.85429823 0.97603285
-3.6491177 -0.7848627 0.95012856
-3.512522 -0.64844757 0.92273158
-3.4496644 -0.58676159 0.88511312
-3.3042812 -0.45023906 0.88256198
-3.2304497 -0.37878218 0.87153006
-3.082303 -0.24133261 0.83731925
5.9214635 -0.39771608 0.96889836
-3.0184436 -0.17859554 0.82809824
-2.9519079 -0.13018829 0.82485777
6.2590837 -0.093091838 0.96924293
5.9780302 0.18634942 0.9864465
6.0966597 0.08679045 0.97207129
6.3294191 0.1646259 0.83856958
6.4499335 0.082637958 0.97368354
5.8683124 0.31605929 0.96726871
5.7067566 0.49746135 0.94217277
5.5512667 0.73040825 0.90775073
5.4912472 0.82130802 0.9278568
5.681891 0.86951482 0.95099485
-2.8415887 1.1538132 0.81105202
-2.7827039 1.1247015 0.8137188
5.8689151 1.1632613 0.95962459
-2.8185194 1.2079941 0.82166415
-2.6857603 1.318284 0.82023233
5.7443819 1.2908421 0.95364714
5.8017983 1.2721705 0.97670633
-2.6146939 1.4023221 0.82939684
-2.5202825 1.4751791 0.81609905
5.5723896 1.5575707 0.9547019
5.6054368 1.5557519 0.91652584
5.3810816 1.7683399 0.9544667
5.5026608 1.6872674 0.89399493
5.1763411 1.9746196 0.95852661
5.2975116 1.9046962 0.91195935
4.9912848 2.1837869 0.94427145
5.0756192 2.1162448 0.92742836
5.2082911 2.0201712 0.88479346
4.7997632 2.3938501 0.94433421
4.9397926 2.2869961 0.932675
4.669312 2.5712967 0.87692469
4.8300281 2.4249957 0.91438669
-3.2810206 2.685513 0.80479252
4.5017562 2.7547626 0.91030931
4.6243005 2.6308115 0.92041737
4.3110089 2.9698946 0.89601743
4.4453983 2.8432791 0.91572791
4.2812309 3.0809107 0.92563647
4.4764099 3.1593785 0.89902389
4.1421342 3.2848375 0.91303945
4.3036704 3.3152914 0.93007225
4.5499811 3.2859416 0.95191646
4.6401606 3.2820332 0.96893173
3.9505963 3.4419446 0.94951832
4.0516386 3.5531435 0.88216186
4.3340597 3.5025282 0.9391284
4.4130306 3.4411669 0.88600338
3.7157848 3.7115884 0.81141633
3.8918345 3.6135519 0.9009769
4.1247883 3.6803868 0.90410924
3.316396 3.9997063 0.93784475
-7.2774811 6.3329115 0.84401613
7.1519384 -10.449159 1.160648
6.9234467 -10.361809 1.1268741
10.600303 -9.9161348 1.0667003
5.134304 -8.0238953 1.1305116
5.52811 -8.1001005 1.1959782
4.383491 -7.8666377 1.0044194
4.7317152 -7.808434 1.0538964
7.9716272 -7.402854 1.130863
7.4276166 -6.7371621 1.0315895
3.7783961 -6.439117 1.0771942
4.1584301 -6.4893074 1.1477871
3.3949506 -6.395185 1.0068593
6.3048701 -5.732502 1.145082
2.7553022 -5.4523206 1.0205619
3.1454861 -5.4686055 1.0967841
3.5315542 -5.4872131 1.1734354
5.727921 -5.1053114 1.013371
2.4430356 -4.7607994 1.063405
2.8334644 -4.7679062 1.1462529
6.1492839 -4.4590669 1.0253859
1.7311525 -4.2515807 1.001428
2.1266227 -4.2289457 1.0839193
2.5149379 -4.2323294 1.1732978
6.3125372 -4.3156509 1.0325246
2.6154754 -4.1935391 1.1891315
1.7321121 -3.8090503 1.068444
5.397512 -3.8348899 1.1071334
2.1827497 -3.7704282 1.169678
1.8219151 -3.4232175 1.1484125
3.8701859 -3.4542334 1.0162363
1.1070591 -3.2930694 1.0192146
1.3985183 -3.3692737 1.0684885
4.5344214 -3.2734923 1.1095185
1.3250017 -3.1714921 1.0850662
1.5376174 -3.0062997 1.1594588
3.2861917 -3.132339 1.0319259
3.7779393 -3.1835856 1.1148616
4.7772484 -3.1897335 1.1433997
1.1535394 -2.9232926 1.0878088
2.2358632 -2.7323225 1.0207825
2.6558936 -2.6416652 1.0691981
3.0891371 -2.760927 1.041275
3.2780716 -2.7019517 1.0078201
2.8365867 -2.4861245 1.108876
3.1285121 -2.5076747 1.1371809
3.3939149 -2.56727 1.1145322
3.0280638 -2.3128581 1.0952396
-4.6891847 -2.0335803 1.0167476
-3.8975925 -2.0621133 1.017462
-4.2743611 -1.8340688 1.0495113
-4.080627 -1.854659 1.0280358
-3.7607079 -1.864623 1.0168328
-4.627111 -1.6762154 1.0072187
-4.327652 -1.6181011 1.0466087
-4.065351 -1.7367693 1.0596781
-3.8486297 -1.6605798 1.101895
-3.7789478 -1.7839932 1.0789864
-3.4980402 -1.6875155 1.0610083
-3.3255513 -1.7170693 1.0472552
2.4716375 -1.6706873 1.1733092
-4.4766312 -1.5396774 1.0066251
-4.3072119 -1.4245663 1.0184876
-4.168571 -1.4800559 1.0390445
-3.854991 -1.5017315 1.1190404
-3.706811 -1.4957411 1.1102016
-4.2257013 -1.350578 1.0083911
-4.1723361 -1.2558835 1.0092057
-4.1078243 -1.1950748 1.0291506
-3.9264841 -1.0918474 1.0093558
5.9148998 -0.42127308 1.062289
5.9743299 -0.35544524 1.0345256
6.0820045 -0.29457384 1.0980197
6.1863365 -0.097406276 1.0340452
5.9812884 0.165852 1.1881818
6.1459293 0.085186101 1.0459703
6.300334 0.12083331 1.1738436
6.4200087 0.041846279 1.0309346
5.7994843 0.33089152 1.1645505
5.840961 0.33160844 1.0426552
5.6038117 0.55777401 1.1129603
5.5256748 0.73034847 1.0984371
5.6708879 0.72136128 1.023872
5.2548871 0.82369393 1.1052201
5.5671349 0.95114607 1.0974195
5.3173947 1.1342716 1.1506076
5.7859359 1.0099412 1.0360903
5.8272462 1.1446172 1.0405302
5.4565291 1.3053665 1.1779487
5.7217412 1.3346062 1.083087
5.5523224 1.545195 1.1002768
5.6124673 1.5160555 1.0317546
5.3562274 1.7585502 1.0497346
5.4593992 1.6817062 1.082339
5.1666613 1.9834349 1.0621054
5.2830329 1.9043337 1.0778275
5.0418816 2.1414347 1.0443194
4.7995749 2.3898435 1.0421988
4.7018952 2.5293937 1.0270581
4.3515563 2.8679948 1.0061691
4.3826685 3.04655 1.1374526
4.0716763 3.2477729 1.0126853
3.9542594 3.5122099 1.1626434
4.0990949 3.4439034 1.1791154
3.6515262 3.6507597 1.1257005
3.8978488 3.7231469 1.0939043
3.6294067 3.8195825 1.0193996
3.4379723 4.1945448 1.0842582
-10.028408 8.4827271 1.0214176
-9.8717594 9.8830442 1.0590837
-9.8995247 10.0132 1.0733056
-9.931489 10.240812 1.0980868
8.6428585 -11.03514 1.3799257
8.2807808 -10.898079 1.3271568
7.9142108 -10.751286 1.2732279
7.508945 -10.59144 1.2135105
9.4960938 -8.92418 1.3922751
6.2897058 -8.2699356 1.3237696
6.6414599 -8.3487787 1.3826706
5.896327 -8.1894131 1.2583268
12.720686 -8.1868553 1.2098739
12.852764 -8.0686083 1.217016
13.08869 -7.8276935 1.2282342
7.3309221 -6.8174815 1.377084
5.3421488 -6.6528335 1.369574
4.5526743 -6.5580497 1.2228878
4.9376035 -6.5873561 1.2926476
3.9745376 -5.5110941 1.2627078
4.3201852 -5.5215797 1.3319919
3.2304001 -4.8023276 1.2366304
3.366745 -4.7485499 1.2576538
3.635185 -4.7350302 1.3144094
4.0128689 -4.7447572 1.3997748
5.2353449 -4.6494656 1.2818625
2.9414778 -4.168468 1.2619244
3.3172874 -4.1214452 1.344752
2.6099148 -3.6953604 1.2633622
2.9793193 -3.6281567 1.3482997
4.1486316 -3.6521564 1.3712314
2.2574103 -3.5500495 1.2157454
2.3361599 -3.3445609 1.2707744
2.7232864 -3.2386816 1.3593837
3.9199257 -3.3789518 1.2917132
1.8793976 -3.0035653 1.2274163
2.3276186 -3.0845466 1.302321
3.5982702 -3.0662031 1.3031352
2.0305851 -2.7230318 1.2990525
2.400815 -2.7098749 1.3747332
2.7720129 -2.0181966 1.3325882
2.6219199 -1.8549023 1.2792327
5.1258316 -0.46944773 1.3618731
5.6739287 -0.47656623 1.2758614
5.8185987 -0.46136546 1.3475692
4.9607263 -0.39473078 1.3623701
5.1586418 -0.36691934 1.3645115
5.2934732 -0.31906241 1.3801755
5.7464261 -0.38995051 1.3615841
5.9391146 -0.36611149 1.3512985
6.1374702 -0.28846395 1.2981744
6.1454062 -0.073580921 1.3447518
6.2913671 -0.10122301 1.2702124
6.423996 -0.019852867 1.2634945
6.0258732 0.067725323 1.3687266
6.4606171 0.025113799 1.2487715
5.7485862 0.36200228 1.385444
5.8482704 0.25703225 1.3081304
5.6608286 0.52797472 1.3121326
5.5639973 0.64613789 1.357209
5.6316104 0.76705194 1.3187956
5.7285428 0.86044991 1.3811748
5.8365741 0.9521805 1.3740156
5.8731103 1.1288667 1.3540189
5.7059474 1.3233016 1.3467284
5.5661764 1.5147254 1.3357595
5.3317204 1.7522746 1.343323
5.4072556 1.6829392 1.3355054
5.1495428 1.9505165 1.3317587
5.2328482 1.899937 1.3677926
4.9654903 2.1596942 1.3196441
5.0408592 2.0855284 1.3431554
4.7538371 2.3784134 1.3195204
4.8456655 2.3221951 1.2689068
4.5862989 2.5646861 1.2757865
4.676506 2.5151539 1.2750292
4.8127713 2.4142628 1.2430795
4.3711944 2.7714975 1.3022329
4.5106382 2.7045701 1.2779882
4.1896739 2.9558837 1.2031324
4.3607373 2.8052733 1.2541673
4.4098668 2.8097067 1.3030254
4.1235485 3.1449249 1.2600104
4.2537179 3.0585454 1.283003
4.5124254 3.1048527 1.2454622
3.9913394 3.300061 1.2307997
4.1026206 3.2805243 1.2633539
4.5730333 3.3175938 1.3047161
4.7253709 3.2740688 1.3252301
3.5918753 3.5900986 1.3891501
3.876739 3.4756248 1.2486417
4.4816985 3.4033883 1.2761911
4.1234016 3.7420413 1.2138265
3.2356589 3.9449077 1.3225751
3.4134243 3.8118033 1.248682
8.3191595 6.1492949 1.2363276
-11.423047 12.893965 1.3619961
12.966964 -16.513819 1.434925
13.100764 -16.394125 1.4474388
14.775612 -14.18482 1.5766344
10.129766 -11.623941 1.5963135
9.7433701 -11.478336 1.5406094
9.0724869 -11.214952 1.4430947
9.4020262 -11.336073 1.4906896
8.8819342 -11.120276 1.414465
10.515043 -10.011945 1.5703874
7.8406639 -8.6389933 1.5844043
7.0219655 -8.4690437 1.4487633
7.4710546 -8.5507221 1.5223993
6.5187397 -6.8077354 1.5906709
5.7393031 -6.7016854 1.4437329
6.1429977 -6.764215 1.5205185
6.2640839 -5.750206 1.4433864
4.7228971 -5.5269251 1.4125192
5.0223408 -5.5329208 1.4730694
5.2552576 -5.5377426 1.5204337
5.5237346 -5.5472298 1.5757612
4.3979673 -4.7165637 1.4823542
4.8469396 -4.6572471 1.5761576
5.1579247 -4.7187219 1.4008089
3.7279754 -4.0756621 1.4391255
4.1397777 -3.9004388 1.5141227
3.3291171 -3.5630238 1.4316778
3.4889755 -3.5217285 1.4685829
3.8055766 -3.4138043 1.5384622
3.0821288 -3.1438086 1.447531
3.3906138 -3.0510938 1.5245204
2.7529116 -2.8259377 1.4284476
3.1352677 -2.913821 1.4932956
2.5628271 -2.5327952 1.4350913
2.8295982 -2.4175391 1.5064893
3.2043543 -2.5303996 1.4510391
3.4030433 -2.5534029 1.592815
5.6539583 -0.24277353 1.4136233
5.1312814 -0.18326201 1.4027528
5.2458916 -0.19981025 1.4067993
5.4928379 -0.089317404 1.4280282
5.9447913 -0.020855391 1.4010934
5.2859697 0.0015389416 1.4419429
5.5245066 0.16706868 1.4811194
5.7665544 0.12147067 1.4401774
5.8946981 0.027349681 1.4197376
6.2582226 0.044202037 1.5121994
5.4950399 0.26106399 1.497178
5.6825347 0.35085022 1.4870663
5.5422707 0.53985387 1.4909205
5.6881189 0.49813393 1.402202
5.5465951 0.6358285 1.4106047
5.6423454 0.62095881 1.4162154
5.2067571 0.93910456 1.535785
5.5774665 0.92899543 1.4976463
5.7257442 0.84058499 1.4302804
5.8056974 0.9879896 1.4846208
5.2635164 1.1453215 1.5099099
5.7815628 1.1867367 1.4840248
5.8892856 1.0703274 1.5011321
5.4146895 1.2966292 1.5902051
5.6966958 1.3028558 1.4744411
5.5007973 1.5324717 1.4406719
5.6074572 1.4465871 1.4524362
5.3060436 1.7330803 1.4663013
5.4328618 1.6241771 1.4401041
5.153182 1.8924836 1.4801766
4.9470215 2.1182158 1.4066166
4.2270379 2.7680981 1.5847358
4.1012993 2.9350069 1.5254138
3.9299562 3.1404836 1.4944929
3.933655 3.4200144 1.4440469
4.1604385 3.4828091 1.5494678
3.3555088 3.8074772 1.4278162
3.8216774 3.8411348 1.5993187
-7.2396154 6.1238647 1.5196781
-11.296268 12.94976 1.5018206
-11.203012 13.03338 1.5527021
-11.094135 13.091601 1.5980856
14.665671 -17.641878 1.6335464
14.428407 -17.541782 1.6068286
14.875875 -17.436272 1.6521466
15.312426 -17.111847 1.6916837
15.545509 -16.889963 1.7114158
15.724724 -16.704807 1.7259756
15.988111 -16.434452 1.7469935
16.129194 -16.297096 1.7581979
16.324911 -16.098955 1.7732863
11.291924 -12.082204 1.7640448
10.808396 -11.906235 1.6950459
11.028301 -11.97908 1.7261256
10.507787 -11.782859 1.651432
8.5906086 -8.8522482 1.7124605
8.98211 -8.9357872 1.7772268
12.650569 -8.2508211 1.7369536
12.855224 -8.0224571 1.7481986
8.3548679 -7.9206214 1.610064
13.055224 -7.7895865 1.7583845
6.8963833 -6.8424478 1.6604133
7.2081861 -6.8653479 1.717517
5.8865027 -5.565321 1.6514812
4.9923921 -4.6507478 1.608762
5.1238909 -4.6809101 1.6435975
4.4387002 -3.2757747 1.6999235
4.6335626 -3.2502303 1.7541584
3.9114783 -2.9034426 1.6637428
5.920043 0.081102081 1.7260108
5.569334 0.52430308 1.6874501
5.6169267 0.47953716 1.7074294
5.3974085 0.72389513 1.6144028
5.884459 1.0142651 1.6153899
5.4857669 1.4848434 1.6065872
4.8392162 2.1033566 1.7863916
4.6292791 2.3173797 1.70556
4.4652605 2.5357158 1.64744
-7.2233191 5.8787756 1.6874086
12.718685 -12.658169 1.9693568
12.386329 -12.502031 1.920608
11.677082 -12.231521 1.8193021
12.03092 -12.375187 1.8702846
9.3131819 -9.024312 1.8332341
6.4173656 -4.4872546 1.9212234
5.3027153 -3.8162656 1.8080621
5.3000503 0.70551842 1.9873009
5.1315989 0.89757872 1.9631193
5.2018685 1.10443 1.9491873
5.1857686 1.6974547 1.9287329
4.9649892 1.8913554 1.9443951
5.046802 1.8996838 1.8703282
-9.4980354 7.8277183 1.8270502
-9.5830603 8.0404663 1.859364
-11.451117 12.692171 1.9951408
-11.376187 12.741882 1.9945369
-11.291903 12.88484 1.9519656
-11.178339 13.013297 1.9258568
12.977017 -12.775499 2.0070291
8.1303701 -5.5446186 2.1114628
5.4957504 0.46339798 2.1267757
5.3423257 1.248937 2.0038443
5.3878508 1.4726597 2.0166037
8.3584785 5.9868541 2.1754918
