# .PCD v0.7 - Point Cloud Data file format
VERSION 0.7
FIELDS x y z intensity ring
SIZE 4 4 4 4 2
TYPE F F F F U
COUNT 1 1 1 1 1
WIDTH 1334
HEIGHT 1
VIEWPOINT 0 0 0 1 0 0 0
POINTS 1334
DATA ascii
5.7684898 6.6382313 -0.76941085 1 5
1.5445695 1.7699506 -0.62944794 3 0
1.783015 2.041749 -0.62581384 5 1
2.1570168 2.4691546 -0.6373021 4 2
2.705554 3.0948861 -0.65108031 6 3
3.7125523 4.2453008 -0.69246167 3 4
5.7995014 6.6270494 -0.77045673 1 5
1.5491556 1.7633669 -0.62893027 4 0
1.7910622 2.0372891 -0.62626374 5 1
2.1626005 2.4590392 -0.63653886 3 2
2.7301569 3.1022091 -0.65452182 6 3
3.7187405 4.2240252 -0.69099921 3 4
5.8188105 6.6047926 -0.7701081 1 5
1.5460355 1.7480909 -0.62530684 4 0
1.8055571 2.0400949 -0.62896317 5 1
2.1629341 2.4430349 -0.63424915 3 2
2.7417386 3.0946178 -0.65483475 5 3
3.7360976 4.2139888 -0.69148672 3 4
5.8512578 6.597383 -0.77150261 1 5
1.5482739 1.7383554 -0.62375391 4 0
1.8165576 2.0381434 -0.63031286 5 1
2.1740625 2.4384003 -0.63501233 3 2
2.7551551 3.0879757 -0.65546048 5 3
3.7534256 4.2038856 -0.69197422 3 4
5.879559 6.5828638 -0.77219987 1 5
1.5556221 1.7343787 -0.62427157 4 0
1.8184549 2.0259886 -0.62851328 5 1
2.1878071 2.4366403 -0.63653886 4 2
2.7566764 3.068053 -0.65327036 5 3
3.7733872 4.1966619 -0.69294918 3 4
5.9156399 6.5746017 -0.77376866 1 5
1.5658543 1.7329651 -0.62582451 6 0
1.8242077 2.0181842 -0.62806332 5 1
2.1993575 2.4315166 -0.6373021 3 2
2.7718792 3.0623231 -0.65420902 6 3
3.8040032 4.2011213 -0.69587398 3 4
5.9505959 6.5671988 -0.77533752 1 5
1.5770942 1.7332045 -0.62789506 7 0
1.8342181 2.0143652 -0.62896317 5 1
2.2078311 2.423825 -0.6373021 3 2
2.7878754 3.0584674 -0.65546048 6 3
3.7979701 4.1636863 -0.69197422 3 4
5.9721413 6.5449133 -0.77516311 1 5
1.5753042 1.7191426 -0.62478918 7 0
1.8435202 2.0111458 -0.62986296 5 1
2.213625 2.4132094 -0.63653886 4 2
2.802007 3.0535741 -0.65639907 6 3
3.8278692 4.1686134 -0.69489902 3 4
6.0084276 6.5387015 -0.77690631 1 5
1.5770668 1.7096498 -0.6232363 7 0
1.8544952 2.0089939 -0.63121265 5 1
2.218951 2.4029713 -0.63577563 3 2
2.8139904 3.0452249 -0.656712 6 3
3.8612647 4.1756315 -0.69831145 3 4
6.0314326 6.5202017 -0.7770806 1 5
1.5843393 1.70555 -0.62375391 6 0
1.8601701 2.0010803 -0.63076276 5 1
2.227325 2.3952115 -0.63577563 4 2
2.8138382 3.0238137 -0.65420902 6 3
3.8568764 4.1417899 -0.69489902 3 4
6.0500836 6.4947333 -0.77655768 1 5
1.5955625 1.7056519 -0.62582451 7 0
1.8631481 1.9903073 -0.62941307 5 1
2.2464082 2.3988857 -0.63882852 4 2
2.8338308 3.0240636 -0.65639907 6 3
3.8767428 4.1340928 -0.69587398 1 4
6.0972519 6.4997315 -0.77969521 1 5
1.6041555 1.7028848 -0.62685978 7 0
1.8670646 1.9812819 -0.62851328 5 1
2.2547688 2.3910289 -0.63882852 4 2
2.8438427 3.0146503 -0.65639907 6 3
3.893157 4.1241002 -0.69636148 3 4
6.1185365 6.4769592 -0.77952093 1 5
1.6097934 1.6975561 -0.62685978 6 0
1.8793353 1.9804062 -0.63031286 5 1
2.2599804 2.3806925 -0.63806528 4 2
2.8625126 3.0132973 -0.65827632 6 3
3.915735 4.1191187 -0.69782394 3 4
6.1465998 6.4613376 -0.78021818 1 5
1.6146712 1.6902466 -0.62634212 7 0
1.8916219 1.97947 -0.6321125 5 1
2.2686927 2.3723915 -0.63806528 4 2
2.8803656 3.0099223 -0.6598407 5 3
3.9300907 4.1054244 -0.69782394 3 4
6.1649799 6.4355273 -0.77969521 1 5
1.6218996 1.6859933 -0.62685978 6 0
1.9015678 1.9753309 -0.63301229 5 1
2.2796822 2.3672879 -0.63882852 4 2
2.8785191 2.9870472 -0.65702486 6 3
3.9423542 4.0881352 -0.69733644 3 4
6.1998591 6.4268732 -0.78126407 1 5
1.625087 1.6775459 -0.62582451 6 0
1.8948871 1.9546896 -0.62851328 5 1
2.2879322 2.3593152 -0.63882852 4 2
2.8930547 2.9812346 -0.65796345 6 3
3.9648995 4.0828924 -0.69879889 3 4
6.2194757 6.4023342 -0.78091538 1 5
1.6390263 1.6801605 -0.62893027 6 0
1.9057831 1.9522462 -0.62986296 5 1
2.298898 2.3541234 -0.63959181 4 2
2.9034443 2.9711168 -0.65796345 6 3
3.9652452 4.0548372 -0.69636148 3 4
6.2612953 6.4005241 -0.78335583 1 5
1.6408201 1.6702942 -0.62737739 6 0
1.918049 1.951142 -0.63166255 5 1
2.3043475 2.3432851 -0.63882852 4 2
2.9234943 2.9708216 -0.66015351 6 3
3.9738052 4.0353131 -0.69538653 3 4
6.2891932 6.3843045 -0.78405303 1 5
1.6439239 1.6618093 -0.62634212 7 0
1.9234778 1.9430494 -0.63121265 5 1
2.3125138 2.3352263 -0.63882852 4 2
2.9324572 2.9591949 -0.6598407 6 3
4.0018435 4.0355134 -0.69782394 3 4
6.3030167 6.3538294 -0.78300714 1 5
1.651077 1.6574306 -0.62685978 7 0
1.9299111 1.9366598 -0.63121265 5 1
2.3234234 2.329921 -0.63959181 4 2
2.9310939 2.9382651 -0.65733767 5 3
4.0264244 4.0334587 -0.69977379 3 4
6.3279757 6.3346071 -0.78335583 1 5
1.6593004 1.6546741 -0.62789506 7 0
1.9297583 1.923033 -0.62896317 5 1
2.3367 2.3277462 -0.64111823 4 2
2.9525332 2.9391642 -0.6598407 6 3
4.0517373 4.03058 -0.70172375 3 4
6.3602505 6.3248253 -0.78475034 1 5
1.6705574 1.6543087 -0.62996554 7 0
1.940614 1.9203978 -0.63031286 7 1
2.3420203 2.3168132 -0.64035505 4 2
2.9683931 2.9343953 -0.66109216 6 3
4.051661 4.0024605 -0.69928634 3 4
6.3993001 6.319386 -0.78684205 1 5
1.6721892 1.6444043 -0.62841266 7 0
1.9542551 1.9204417 -0.63256234 6 1
2.3472917 2.3058729 -0.63959181 4 2
2.9786177 2.9240167 -0.66109216 6 3
4.0712748 3.9938545 -0.70026129 3 4
6.421319 6.2970114 -0.78684205 1 5
22.230558 21.78499 -1.6312072 7 6
1.6696267 1.6304584 -0.62530684 7 0
1.9637358 1.9163311 -0.63346219 5 1
2.3553269 2.2976646 -0.63959181 3 2
2.9859767 2.9108443 -0.66046637 6 3
4.0823483 3.9768474 -0.69977379 3 4
6.4375491 6.2689991 -0.78614479 1 5
22.329372 21.729536 -1.632882 7 6
1.6794682 1.6286554 -0.62685978 7 0
1.9676145 1.9067518 -0.63256234 5 1
2.3633325 2.2894294 -0.63959181 4 2
2.9904428 2.8949068 -0.65921491 6 3
4.0962043 3.962574 -0.69977379 3 4
6.4608269 6.2478733 -0.78631908 1 5
22.465405 21.709759 -1.6372783 7 6
1.6907085 1.6281433 -0.62893027 6 0
1.965834 1.8917639 -0.62986296 5 1
2.3826282 2.2920551 -0.64264476 3 2
3.0062268 2.889926 -0.66046637 6 3
4.1071491 3.9454999 -0.69928634 3 4
6.5027165 6.2446008 -0.78875941 1 5
22.569878 21.658859 -1.6393716 7 6
1.6991744 1.6249017 -0.62996554 7 0
1.9738339 1.8862369 -0.63031286 5 1
2.3962934 2.2891479 -0.64417118 4 2
3.0234396 2.8862352 -0.66203076 6 3
4.1266427 3.936619 -0.70026129 3 4
6.5273576 6.2246156 -0.7891081 1 5
22.677156 21.610252 -1.6416745 7 6
1.6950299 1.6096491 -0.62634212 7 0
1.9818203 1.8806765 -0.63076276 5 1
2.387177 2.2645562 -0.63959181 3 2
3.0377977 2.87974 -0.66296935 6 3
4.1403565 3.9221931 -0.70026129 3 4
6.5577273 6.2100105 -0.79015392 1 5
22.912012 21.681986 -1.6531883 7 6
1.6992332 1.6023966 -0.62582451 7 0
1.9940445 1.8790945 -0.63256234 7 1
2.3950677 2.2562089 -0.63959181 4 2
3.0449529 2.8664126 -0.66234362 6 3
4.1626987 3.9158769 -0.70172375 3 4
6.572103 6.1802621 -0.78928244 1 5
23.034138 21.645636 -1.6565379 7 6
1.707637 1.5990959 -0.62685978 6 0
1.9949007 1.8667959 -0.63076276 5 1
2.4172666 2.261246 -0.643408 3 2
3.0549407 2.8557656 -0.66234362 6 3
4.1850452 3.9094539 -0.70318621 3 4
6.6082001 6.1708803 -0.79102546 1 5
23.153358 21.605984 -1.659678 7 6
1.7188659 1.5983887 -0.62893027 6 0
1.9928401 1.8518612 -0.62806332 5 1
2.422267 2.2501237 -0.64264476 3 2
3.0619957 2.8423955 -0.66171783 6 3
4.1812034 3.8786199 -0.70026129 3 4
6.6370063 6.1545477 -0.79189706 1 5
23.252081 21.546745 -1.6613528 7 6
1.7301127 1.597621 -0.63100088 6 0
2.0021563 1.8475373 -0.62896317 6 1
2.4358792 2.2469785 -0.64417118 3 2
3.0748034 2.8343685 -0.66234362 6 3
4.2005577 3.8693795 -0.70123625 3 4
6.6716385 6.1434903 -0.79346585 1 5
22.471786 20.678341 -1.6004337 14 6
1.7328308 1.588961 -0.62996554 6 0
2.0157773 1.8471193 -0.63121265 8 1
2.4350212 2.2305059 -0.64188147 3 2
3.0934217 2.8316202 -0.66422081 6 3
4.2162924 3.8581121 -0.70172375 3 4
6.6959853 6.1228523 -0.79381454 1 5
22.478952 20.540499 -1.5958281 14 6
1.7323781 1.578002 -0.62789506 6 0
2.0247734 1.8430485 -0.6321125 6 1
2.440953 2.221097 -0.64149988 3 2
3.1027942 2.821347 -0.66422081 6 3
4.2349401 3.8494487 -0.70269871 3 4
6.7162514 6.100615 -0.79381454 1 5
22.461166 20.387989 -1.5897572 7 6
1.737601 1.5722489 -0.62789506 6 0
2.029429 1.8350165 -0.63166255 5 1
2.4584997 2.2222059 -0.64417118 3 2
3.1062698 2.8057451 -0.66296935 6 3
4.2542467 3.8399618 -0.70367366 3 4
6.737926 6.0796428 -0.79398882 1 5
22.448557 20.241163 -1.5841049 7 6
1.750264 1.5726293 -0.63048321 6 0
2.0300217 1.822714 -0.62986296 5 1
2.4764695 2.2227895 -0.64684254 3 2
3.1219265 2.8001614 -0.66422081 6 3
4.2676239 3.8250892 -0.70367366 3 4
6.7709756 6.0667238 -0.79538327 1 5
21.95364 19.656422 -1.5443295 6 6
1.7586256 1.5690827 -0.63151848 6 0
2.0421896 1.8208045 -0.63166255 5 1
2.4754195 2.2062945 -0.64455283 3 2
3.137583 2.7945013 -0.66547227 6 3
4.2809496 3.8101702 -0.70367366 3 4
6.8114634 6.0602665 -0.79764932 1 5
22.05197 19.606215 -1.5464231 6 6
1.7554166 1.5552474 -0.62841266 6 0
2.0470734 1.8123736 -0.63121265 5 1
2.4801657 2.1950374 -0.64378959 3 2
3.1561949 2.7913866 -0.66734952 5 3
4.2971988 3.7978318 -0.70416111 3 4
6.8221207 6.0272231 -0.79642916 1 5
22.183161 19.584631 -1.5508193 14 6
1.7608351 1.5491099 -0.62841266 6 0
2.0621691 1.8129364 -0.63391209 5 1
2.495187 2.1928458 -0.64569765 3 2
3.1599832 2.7751374 -0.66609806 6 3
4.307445 3.7801907 -0.70367366 3 4
6.8506083 6.0099411 -0.79730076 1 5
22.323473 19.57028 -1.5558435 14 6
1.7647759 1.5416843 -0.62789506 6 0
2.0655494 1.8031634 -0.63301229 5 1
2.4909911 2.1737976 -0.64264476 3 2
3.1696517 2.7640891 -0.66609806 6 3
4.3385739 3.7807803 -0.70659852 3 4
6.8700442 5.9846811 -0.79712647 1 5
22.433836 19.52895 -1.5587744 14 6
23.086596 20.083046 -0.53411347 7 7
1.7803621 1.5443753 -0.63151848 6 0
23.116621 20.045427 0.53407854 22 8
2.058578 1.7844549 -0.62896317 5 1
23.166376 20.074429 1.6065047 23 9
2.5104342 2.1753738 -0.64569765 3 2
23.206764 20.102318 2.6861401 24 10
3.1792803 2.7530088 -0.66609806 5 3
23.224808 20.103781 3.7716129 15 11
4.3487434 3.7630138 -0.70611101 3 4
23.263039 20.122675 4.8716826 18 12
6.9044533 5.9723959 -0.79869521 1 5
23.278215 20.1287 5.9818625 20 13
22.507919 19.455742 -1.559193 14 6
23.129322 19.9788 -0.53348517 28 7
1.7857418 1.5381516 -0.63151848 6 0
23.203106 19.978981 0.53446251 22 8
2.0647948 1.7772578 -0.62896317 5 1
23.236303 19.993444 1.6065047 15 9
2.5209882 2.1691592 -0.64646095 3 2
23.316053 20.054985 2.6906722 16 10
3.1918671 2.7444692 -0.66672373 5 3
23.294846 20.022583 3.7716129 7 11
4.364861 3.7504015 -0.70659852 4 4
23.351126 20.056789 4.8754373 18 12
6.9343295 5.9560461 -0.79974109 1 5
23.393024 20.085684 5.9933109 14 13
22.669643 19.457724 -1.5656826 14 6
1.7837598 1.5256301 -0.62893027 6 0
23.26359 19.890064 0.53425306 7 8
2.0828359 1.7801697 -0.63256234 5 1
2.5166039 2.1501431 -0.643408 3 2
3.2119415 2.7422912 -0.66891384 6 3
4.3658452 3.7248337 -0.70464855 3 4
6.9611397 5.9369769 -0.80043828 1 5
22.783033 19.417332 -1.5688227 14 6
1.7890749 1.5193938 -0.62893027 6 0
2.0931849 1.7770361 -0.63391209 5 1
2.5270889 2.1438849 -0.64417118 3 2
3.2195122 2.7303467 -0.66860098 6 3
4.3963475 3.7257354 -0.70757347 3 4
6.9787793 5.9100685 -0.80008972 1 5
23.322443 19.750908 5.9406476 13 13
22.950962 19.42942 -1.5759405 14 6
1.79558 1.5146987 -0.62944794 5 0
2.0934157 1.7646942 -0.6321125 5 1
2.5431917 2.143084 -0.64646095 3 2
3.2229803 2.7140017 -0.66734952 6 3
4.4062877 3.7078114 -0.70708597 3 4
7.00139 5.8894563 -0.80043828 1 5
23.061447 19.385176 -1.5788713 7 6
1.8082608 1.5146246 -0.63203615 6 0
2.098069 1.7561246 -0.63166255 4 1
2.5566792 2.1392336 -0.64798737 3 2
3.232435 2.7027338 -0.66734952 6 3
4.4222493 3.6949542 -0.70757347 3 4
7.040257 5.8803058 -0.80253005 1 5
23.211771 19.373672 -1.5845236 7 6
1.8165078 1.5107735 -0.63307142 7 0
2.1041861 1.7487907 -0.63166255 5 1
2.5550709 2.1227679 -0.64569765 3 2
3.2448883 2.693958 -0.66797519 6 3
4.4290099 3.6744242 -0.70659852 3 4
7.066874 5.8607841 -0.80322731 1 5
23.337696 19.340954 -1.5885011 7 6
1.8173012 1.5007334 -0.63151848 7 0
2.1132832 1.7439162 -0.63256234 4 1
2.5654936 2.1163352 -0.64646095 3 2
3.2710385 2.6964371 -0.67141682 6 3
4.4448729 3.6614668 -0.70708597 4 4
7.0872879 5.836082 -0.80322731 1 5
23.522274 19.355827 -1.5964562 7 6
1.8135659 1.4870309 -0.62841266 6 0
2.1223722 1.7389995 -0.63346219 4 1
2.5667908 2.1023903 -0.64493442 4 2
3.2758443 2.6812499 -0.67047822 6 3
4.4699202 3.6559825 -0.70903593 3 4
7.1014447 5.8062639 -0.80253005 1 5
23.648474 19.321613 -1.6004337 7 6
1.8247377 1.4855704 -0.63048321 6 0
2.1284301 1.7315799 -0.63346219 4 1
2.5862987 2.103328 -0.64798737 3 2
3.279053 2.6648147 -0.66922677 6 3
4.4795718 3.6378551 -0.70854843 3 4
7.1324987 5.7902279 -0.80375022 1 5
24.060108 19.518288 -1.6236709 7 6
1.8299119 1.4791923 -0.63048321 6 0
2.1314299 1.7216899 -0.63256234 4 1
2.5966792 2.0967546 -0.6487506 3 2
3.2883356 2.6533515 -0.66922677 6 3
4.4922442 3.622195 -0.70854843 3 4
7.1588736 5.7702951 -0.80444747 1 5
24.208982 19.499327 -1.6291138 7 6
1.8395844 1.4764227 -0.63203615 7 0
2.1343861 1.7118014 -0.63166255 4 1
2.5947926 2.0803087 -0.64646095 3 2
3.3037429 2.6467977 -0.67047822 6 3
4.5079613 3.6089723 -0.70903593 3 4
7.1960821 5.7589669 -0.80636495 1 5
24.432884 19.539436 -1.639581 7 6
25.0725 20.036623 -0.56022227 15 7
1.8462373 1.4711967 -0.63255376 6 0
2.1433976 1.7067678 -0.63256234 4 1
2.5928218 2.0639029 -0.64417118 3 2
3.3222384 2.6426268 -0.67235541 6 3
4.5205288 3.5932178 -0.70903593 4 4
7.228622 5.7437267 -0.8077594 1 5
24.58539 19.521112 -1.6452333 7 6
1.8392419 1.4551535 -0.62841266 6 0
2.1554558 1.7041116 -0.63436198 4 1
2.6061721 2.0597084 -0.64569765 3 2
3.3329911 2.6322408 -0.67266828 6 3
4.5455112 3.5872533 -0.71098578 3 4
7.2517519 5.720932 -0.80810803 2 5
24.712992 19.482155 -1.6492108 7 6
1.8519064 1.4546908 -0.63100088 6 0
2.1675231 1.7013896 -0.63616157 4 1
2.6226137 2.0578694 -0.64798737 3 2
3.3312781 2.6120572 -0.67047822 6 3
4.5548797 3.568917 -0.71049833 6 4
7.2842264 5.7054105 -0.80950248 2 5
24.887793 19.479486 -1.6563284 7 6
1.8600185 1.4505948 -0.63203615 6 0
2.164227 1.6866252 -0.63346219 4 1
2.626682 2.0462911 -0.64722413 3 2
3.3466115 2.6052659 -0.67172968 6 3
4.5626101 3.5493381 -0.7097671 6 4
7.2993813 5.6762781 -0.80897957 2 5
25.028187 19.44886 -1.6611434 7 6
1.8665986 1.4452754 -0.63255376 6 0
2.1670182 1.6766758 -0.63256234 4 1
2.6307034 2.0347068 -0.64646095 3 2
3.3525589 2.5911529 -0.67110395 6 3
4.5718303 3.5309618 -0.7092796 6 4
7.3349195 5.6629405 -0.81072265 2 5
25.219275 19.45653 -1.6693078 8 6
1.8746953 1.4411063 -0.63358909 6 0
2.1728582 1.6691008 -0.63256234 5 1
2.6377895 2.0255122 -0.64646095 3 2
3.3725538 2.5878513 -0.67329407 6 3
4.5841269 3.5149825 -0.7092796 6 4
7.330925 5.6191196 -0.80810803 2 5
25.378994 19.438824 -1.6753788 8 6
1.865893 1.4240048 -0.62893027 6 0
2.1926169 1.6721418 -0.63661146 5 1
2.6542122 2.023433 -0.6487506 3 2
3.3831375 2.577261 -0.67360687 6 3
4.5979476 3.5001628 -0.70952338 6 4
7.350493 5.5934973 -0.80810803 2 5
25.56752 19.442001 -1.6833339 8 6
1.877012 1.4221492 -0.63100088 6 0
2.1950426 1.662509 -0.63571167 5 1
2.6612597 2.0141549 -0.6487506 3 2
3.3822131 2.5588777 -0.67172968 5 3
4.6206145 3.4932752 -0.71122956 6 4
7.3747444 5.5714068 -0.808631 2 5
1.8832604 1.4170797 -0.63151848 6 0
2.1914876 1.6478091 -0.63301229 5 1
2.6679237 2.0053194 -0.6487506 3 2
3.3879664 2.5446823 -0.67110395 6 3
4.6296043 3.4747424 -0.71074206 6 4
7.4011464 5.5528998 -0.80950248 2 5
1.8881958 1.4104967 -0.63151848 6 0
2.2034724 1.6448126 -0.63481188 5 1
2.6780541 1.9983432 -0.64951384 3 2
3.4015782 2.5363836 -0.67204249 5 3
4.6385221 3.4561875 -0.71025455 6 4
7.4348669 5.5377412 -0.81107134 2 5
1.8900049 1.4015951 -0.63048321 6 0
2.2154636 1.6417515 -0.63661146 5 1
2.6755483 1.9819705 -0.64722413 3 2
3.4247012 2.5350709 -0.67485833 6 3
4.6537485 3.4423392 -0.71074206 6 4
7.4669662 5.5212326 -0.81246585 2 5
1.8948855 1.3949896 -0.63048321 6 0
2.2211812 1.6340075 -0.63661146 5 1
2.6887765 1.9772719 -0.6487506 3 2
3.4335303 2.5230999 -0.67485833 6 3
4.6753368 3.4331219 -0.71220452 6 4
7.4765582 5.4880586 -0.81141996 2 5
1.9028631 1.3906461 -0.63151848 6 0
2.2268703 1.6262457 -0.63661146 5 1
2.7020054 1.9725038 -0.65027708 3 2
3.4311438 2.5029528 -0.67266828 6 3
4.7017307 3.427304 -0.71439815 6 4
7.495666 5.4619327 -0.81141996 2 5
1.9077048 1.3839966 -0.63151848 6 0
2.2230673 1.6115992 -0.63391209 5 1
2.7088747 1.9630594 -0.65027708 4 2
3.4414604 2.4921181 -0.67298114 6 3
4.7040157 3.4038897 -0.71293575 4 4
7.5243735 5.4427385 -0.81246585 2 5
1.9219306 1.3841023 -0.6346243 6 0
2.2270973 1.6026918 -0.63346219 5 1
2.7188966 1.9558864 -0.65104032 4 2
3.4565539 2.4847028 -0.67423266 6 3
4.7223182 3.3920798 -0.7139107 4 4
7.5498013 5.4210868 -0.8131631 2 5
1.9251789 1.3762611 -0.6341067 6 0
2.240607 1.600571 -0.63571167 5 1
2.7161217 1.9395378 -0.6487506 4 2
3.4700305 2.4760633 -0.6751712 6 3
4.724432 3.3686614 -0.71244824 3 4
7.5719218 5.3970146 -0.81351173 2 5
1.9205182 1.362825 -0.63100088 6 0
2.2588983 1.6017573 -0.6393109 5 1
2.7196717 1.9277747 -0.64798737 4 2
3.4802654 2.4650764 -0.67548412 6 3
4.7491236 3.3613253 -0.71439815 3 4
7.5923429 5.3716989 -0.81368601 3 5
1.9252641 1.3561125 -0.63100088 6 0
2.2644753 1.5938629 -0.6393109 5 1
2.7328072 1.9227878 -0.64951384 3 2
3.4807682 2.447233 -0.67391974 6 3
4.760829 3.3447261 -0.71439815 4 4
7.6159368 5.3486009 -0.81420892 2 5
1.9394851 1.3560258 -0.6341067 7 0
2.2588422 1.5781366 -0.63616157 5 1
2.742722 1.9154842 -0.65027708 3 2
3.4860494 2.4328077 -0.67329407 6 3
4.7659607 3.3235459 -0.71342319 4 4
7.6476359 5.3311 -0.81560344 2 5
1.9394457 1.3459427 -0.63255376 7 0
2.2659383 1.5713531 -0.63661146 5 1
2.7461643 1.9036623 -0.64951384 3 2
3.5026386 2.426249 -0.67485833 6 3
4.7791672 3.3080182 -0.71366698 6 4
7.6743922 5.310039 -0.81647497 2 5
1.9457229 1.340261 -0.63307142 6 0
2.2698047 1.5623285 -0.63616157 5 1
2.7495575 1.8918397 -0.6487506 4 2
3.5175984 2.4184837 -0.67610979 5 3
4.7825031 3.2856963 -0.71244824 6 4
7.6978073 5.2866035 -0.81699795 2 5
1.9408206 1.3269194 -0.62996554 6 0
2.2894537 1.5646884 -0.64021069 6 1
2.7561438 1.8822309 -0.6487506 3 2
3.5288625 2.4090321 -0.67673558 5 3
4.8032107 3.2765315 -0.7139107 6 4
7.707983 5.2540879 -0.81612635 2 5
1.9516039 1.3248156 -0.63203615 7 0
2.2949011 1.5566877 -0.64021069 5 1
2.7721207 1.8796911 -0.65104032 3 2
3.5192611 2.3845115 -0.67329407 6 3
4.8211946 3.2641957 -0.71488559 6 4
7.7295761 5.2293844 -0.81647497 2 5
1.959651 1.3198125 -0.63307142 6 0
2.2906213 1.542138 -0.63751125 5 1
2.7887657 1.8760924 -0.65333003 3 2
3.5279777 2.3715959 -0.67329407 5 3
4.8243227 3.2418098 -0.71366698 6 4
7.7560549 5.2079229 -0.81734651 2 5
1.9642464 1.3129636 -0.63307142 6 0
2.296258 1.5337328 -0.63751125 5 1
2.7887659 1.8619864 -0.65180355 3 2
3.5444491 2.3647504 -0.67485833 6 3
4.8345194 3.2230055 -0.71342319 4 4
7.775846 5.1819201 -0.8175208 2 5
1.9704278 1.3071666 -0.63358909 6 0
2.2980835 1.523955 -0.63661146 5 1
2.795249 1.8522398 -0.65180355 3 2
3.5621531 2.3595278 -0.67673558 6 3
4.8484921 3.209146 -0.7139107 4 4
7.7905598 5.1525531 -0.81717223 2 5
1.9699112 1.2974377 -0.63203615 6 0
2.3164124 1.5244939 -0.64021069 5 1
2.7948148 1.8386446 -0.65027708 3 2
3.5703683 2.3470783 -0.67673558 6 3
4.8596625 3.1922054 -0.7139107 6 4
7.7992764 5.1212196 -0.81630063 2 5
1.979279 1.2937248 -0.63358909 6 0
2.3135622 1.5110699 -0.63796121 5 1
2.8045034 1.831025 -0.65104032 3 2
3.5669591 2.327045 -0.67454553 6 3
4.8741026 3.1773894 -0.71439815 6 4
7.8171072 5.0939622 -0.81630063 2 5
1.9821625 1.2857561 -0.63307142 6 0
2.320457 1.5040463 -0.6384111 5 1
2.8174689 1.8254937 -0.65256679 3 2
3.5767169 2.3156555 -0.67485833 6 3
4.8934989 3.1657462 -0.71561682 6 4
7.8365111 5.0677314 -0.81647497 1 5
1.9915115 1.2819666 -0.6346243 6 0
2.3224154 1.4938283 -0.63751125 5 1
2.8205206 1.8135247 -0.65180355 3 2
3.5980744 2.3116977 -0.67736137 6 3
4.8961663 3.1432846 -0.71439815 4 4
7.8608618 5.0446491 -0.81717223 1 5
1.9943459 1.2739675 -0.6341067 7 0
2.3309007 1.4878099 -0.6384111 5 1
2.8301437 1.8057808 -0.65256679 3 2
3.6044555 2.2980628 -0.67704844 5 3
4.9205031 3.134706 -0.71634805 3 4
7.8817825 5.0193205 -0.8175208 1 5
1.9971495 1.2659636 -0.63358909 6 0
2.3492506 1.4880059 -0.64201027 5 1
2.8264778 1.7895887 -0.65027708 3 2
3.6091175 2.2833536 -0.67642272 6 3
4.9280586 3.1153903 -0.71586055 3 4
7.8824134 4.9811316 -0.81577778 1 5
1.9999208 1.2579563 -0.63307142 6 0
2.3527808 1.4787589 -0.64156044 4 1
2.8393567 1.7838898 -0.65180355 3 2
3.6204123 2.272841 -0.67704844 5 3
4.9417253 3.1011426 -0.71634805 3 4
7.9183221 4.9652276 -0.81769514 1 5
2.0089974 1.2543862 -0.6346243 6 0
2.3543639 1.4688871 -0.64066058 5 1
2.8552523 1.7806971 -0.65409327 3 2
3.6262524 2.259779 -0.67673558 6 3
4.9519825 3.0847371 -0.71634805 4 4
7.9347425 4.9389439 -0.81769514 1 5
2.0164301 1.2497532 -0.63565958 6 0
2.3542521 1.457993 -0.6393109 5 1
2.868129 1.7748512 -0.65561974 3 2
3.6387653 2.2508595 -0.67767417 5 3
4.9492126 3.0590818 -0.71439815 3 4
7.9722753 4.9237809 -0.81978685 1 5
2.0127683 1.2372961 -0.63307142 6 0
2.3678832 1.4544536 -0.64156044 5 1
2.8545356 1.752004 -0.65104032 3 2
3.6486752 2.2385397 -0.67798704 6 3
4.9773145 3.0512974 -0.71683556 3 4
8.0038595 4.9028559 -0.82118142 1 5
2.0123417 1.2268922 -0.63151848 6 0
2.3632123 1.4396825 -0.638861 5 1
2.8673415 1.7461129 -0.65256679 4 2
3.6585426 2.2261794 -0.67829996 5 3
4.9918561 3.0350978 -0.71732301 3 4
8.0090075 4.8676414 -0.81996119 1 5
2.0232234 1.2238613 -0.63358909 6 0
2.3748946 1.435456 -0.64066058 5 1
2.8767786 1.7381258 -0.65333003 3 2
3.6612184 2.2103314 -0.67736137 5 3
5.0160193 3.0258563 -0.71927297 3 4
8.0242453 4.8386245 -0.81978685 1 5
2.0307963 1.2187791 -0.6346243 6 0
2.3732057 1.423149 -0.638861 6 1
2.8962996 1.7361476 -0.65638298 3 2
3.6723003 2.1995687 -0.67798704 5 3
5.0158062 3.0030885 -0.71781051 3 4
8.0445051 4.8126326 -0.82013553 1 5
2.0381467 1.2140148 -0.63565958 7 0
2.3812609 1.4172652 -0.63976079 5 1
2.8986673 1.7245255 -0.65561974 3 2
3.68297 2.1893985 -0.67861283 5 3
5.0154986 2.9803534 -0.71634805 3 4
8.0809765 4.7981372 -0.82222724 1 5
2.03052 1.2003679 -0.63203615 7 0
2.3926594 1.4133246 -0.64156044 5 1
2.8976076 1.7109113 -0.65409327 3 2
3.6970155 2.1811872 -0.67986429 5 3
5.0395513 2.9708934 -0.71829796 3 4
8.072813 4.7571502 -0.81978685 1 5
2.0313647 1.1913188 -0.63100088 7 0
2.4059854 1.4098897 -0.64380991 6 1
2.9069498 1.7027717 -0.6548565 3 2
3.6977885 2.1642768 -0.67861283 5 3
5.0533175 2.9552894 -0.71878546 3 4
8.0756111 4.7208958 -0.8183924 1 5
2.0421903 1.1881059 -0.63307142 6 0
2.402468 1.3965863 -0.64156044 5 1
2.9162712 1.694586 -0.65561974 3 2
3.7019033 2.1493728 -0.67798704 5 3
5.0670381 2.9396231 -0.71927297 3 4
8.0954866 4.6946783 -0.81874102 1 5
2.0446515 1.180005 -0.63255376 6 0
2.4039516 1.386245 -0.64066058 6 1
2.9323738 1.6902792 -0.65790945 3 2
3.7110951 2.1374245 -0.67829996 5 3
5.080708 2.9238992 -0.71976036 3 4
8.1394567 4.6822886 -0.82153004 1 5
2.05567 1.1763405 -0.6346243 6 0
2.407325 1.376457 -0.64021069 5 1
2.9317315 1.6756226 -0.65638298 3 2
3.7309122 2.1306646 -0.68049002 5 3
5.0775967 2.8973882 -0.71781051 3 4
8.151372 4.6494608 -0.82100707 1 5
2.0580833 1.1682044 -0.6341067 6 0
2.4135709 1.3694285 -0.64066058 4 1
2.9307311 1.6615065 -0.6548565 3 2
3.737957 2.1182816 -0.68049002 5 3
5.0975428 2.8864019 -0.71927297 3 4
8.1831598 4.629807 -0.82257593 1 5
2.055213 1.1575813 -0.63203615 6 0
2.4251299 1.3648176 -0.64246023 5 1
2.9328022 1.6498542 -0.65409327 3 2
3.7470505 2.1061876 -0.68080288 5 3
5.114511 2.8724773 -0.72024786 3 4
8.1871061 4.5943947 -0.8213557 1 5
2.059442 1.1500404 -0.63203615 6 0
2.4332821 1.3582443 -0.64336002 5 1
2.9491181 1.6448293 -0.65638298 3 2
3.7478428 2.0885942 -0.67955142 5 3
5.1279759 2.8565376 -0.72073537 4 4
8.2100582 4.5696616 -0.8220529 1 5
2.0752735 1.149397 -0.63565958 6 0
2.4314234 1.3455429 -0.64156044 5 1
2.9617124 1.6383283 -0.65790945 3 2
3.7499244 2.0726316 -0.67861283 6 3
5.1418858 2.839644 -0.72122282 3 4
8.227704 4.5419359 -0.82222724 1 5
2.07758 1.1412152 -0.63514197 6 0
2.4395225 1.338922 -0.64246023 5 1
2.9605284 1.6242019 -0.65638298 3 2
3.7605996 2.0614288 -0.6792385 5 3
5.1482825 2.8197744 -0.72073537 4 4
8.2819567 4.5342402 -0.82606214 1 5
2.0815506 1.1339567 -0.63514197 6 0
2.4476049 1.3322611 -0.64336002 5 1
2.969629 1.6157352 -0.65714622 3 2
3.7712443 2.0501752 -0.67986429 5 3
5.1580949 2.801785 -0.72073537 3 4
8.2679672 4.4891386 -0.82309878 1 5
2.0854967 1.1266832 -0.63514197 6 0
2.4537239 1.3250637 -0.64380991 5 1
2.9648845 1.5997649 -0.6548565 3 2
3.7867153 2.0423477 -0.68142867 5 3
5.1778431 2.7903135 -0.72219777 3 4
8.2677956 4.4517555 -0.82153004 1 5
2.0841131 1.1170239 -0.63358909 7 0
2.4634876 1.3192508 -0.6451596 5 1
2.9822888 1.5964105 -0.6575278 3 2
3.7816272 2.0225961 -0.6792385 5 3
5.1875525 2.7722211 -0.72219777 3 4
8.3053598 4.4365153 -0.82379609 1 5
2.0965288 1.1142759 -0.63617724 7 0
2.4575229 1.3055892 -0.64246023 5 1
2.9826405 1.5832298 -0.65638298 3 2
3.7900586 2.0109715 -0.67955142 5 3
5.2142549 2.7643023 -0.72463518 3 4
8.3137541 4.4037642 -0.82309878 1 5
2.0967948 1.1055149 -0.63514197 6 0
2.4586174 1.2951858 -0.64156044 5 1
2.9948235 1.5769885 -0.65790945 3 2
3.8023002 2.0004878 -0.68049002 5 3
5.185216 2.7257648 -0.71927297 3 4
8.3424206 4.3835864 -0.82449329 1 5
2.1006408 1.0981894 -0.63514197 6 0
2.4752142 1.2929119 -0.64470971 6 1
2.9829071 1.5574375 -0.65409327 3 2
3.8127618 1.9890308 -0.68111575 5 3
5.2017412 2.7113171 -0.72024786 3 4
8.3470697 4.3489175 -0.82344747 1 5
2.095886 1.0864043 -0.63255376 6 0
2.4814429 1.2851595 -0.6451596 6 1
2.9987857 1.5524318 -0.65638298 3 2
3.8161738 1.973894 -0.68049002 5 3
5.2323346 2.7040808 -0.72317278 3 4
8.3558731 4.3146362 -0.82275021 1 5
2.1032908 1.0804802 -0.63358909 6 0
2.4859142 1.276489 -0.6451596 5 1
3.004456 1.5414295 -0.65638298 3 2
3.8216238 1.9589932 -0.68017709 5 3
5.245276 2.687609 -0.72366023 4 4
8.3815222 4.2908916 -0.82379609 1 5
2.1139345 1.0766401 -0.63565958 6 0
2.4784184 1.2611831 -0.64201027 6 1
3.0168171 1.5344951 -0.65790945 4 2
3.8354838 1.9492204 -0.68142867 5 3
5.2480106 2.6647723 -0.72268528 3 4
8.4035568 4.265213 -0.82449329 1 5
2.1194048 1.0701247 -0.63617724 6 0
2.4810655 1.251647 -0.64156044 5 1
3.0116374 1.5186505 -0.65561974 3 2
3.8475561 1.9384872 -0.68236721 5 3
5.2395506 2.6375103 -0.72024786 3 4
8.434412 4.2439156 -0.82606214 1 5
2.11449 1.058396 -0.63358909 6 0
2.495877 1.248208 -0.64425981 5 1
3.0169208 1.5081278 -0.65561974 4 2
3.8631361 1.9294572 -0.68393159 5 3
5.2664852 2.6280718 -0.72268528 3 4
8.4402609 4.2099986 -0.82519054 1 5
2.1181712 1.0510092 -0.63358909 6 0
2.5037112 1.2412187 -0.6451596 5 1
3.0256844 1.4993316 -0.65638298 3 2
3.8592265 1.9107008 -0.68205434 5 3
5.2934203 2.6184723 -0.72512263 3 4
8.458478 4.1822753 -0.82553917 1 5
2.1252944 1.0453135 -0.6346243 6 0
2.5080278 1.2324733 -0.6451596 5 1
3.0308998 1.48876 -0.65638298 4 2
3.8640978 1.8963503 -0.68174148 6 3
5.3167877 2.6069691 -0.72707254 3 4
8.4819689 4.157114 -0.82641071 1 5
2.139349 1.0429684 -0.63773018 6 0
2.5015905 1.2190269 -0.64246023 5 1
3.0396085 1.4798907 -0.65714622 4 2
3.8685896 1.8826607 -0.68142867 5 3
5.3075519 2.580642 -0.72463518 3 4
8.5179338 4.1379261 -0.82850248 1 5
2.1410563 1.0350279 -0.63721251 7 0
2.5058308 1.2102866 -0.64246023 5 1
3.0409627 1.4680963 -0.65638298 3 2
3.8786967 1.8708607 -0.68205434 5 3
5.2986431 2.5534852 -0.72219777 3 4
8.517251 4.1027374 -0.82710803 1 5
2.1394298 1.0250432 -0.63565958 6 0
2.5133455 1.2036543 -0.64336002 5 1
3.0531533 1.4608612 -0.65790945 3 2
3.8973529 1.8639548 -0.68424439 5 3
5.3106647 2.5376105 -0.72268528 3 4
8.5297213 4.0721254 -0.82693368 1 5
2.1358371 1.0146276 -0.63358909 6 0
2.5280945 1.1998878 -0.64605945 5 1
3.0437903 1.4439971 -0.6548565 3 2
3.9002652 1.848648 -0.68361872 6 3
5.3374319 2.5275519 -0.72512263 3 4
8.5449781 4.0446715 -0.82710803 1 5
2.1428614 1.0088121 -0.6346243 6 0
2.519717 1.1856887 -0.64291006 5 1
3.0559192 1.4367038 -0.65638298 3 2
3.8992233 1.8323423 -0.68236721 6 3
5.3529711 2.5132141 -0.72609758 3 4
8.5572414 4.0139709 -0.82693368 1 5
2.1500463 1.0025836 -0.63565958 6 0
2.5224845 1.1751828 -0.64246023 5 1
3.0682836 1.4288095 -0.65790945 3 2
3.904439 1.8165246 -0.68205434 6 3
5.3589826 2.490967 -0.72561014 3 4
8.5809298 3.9867792 -0.82780522 1 5
2.1570401 0.99669349 -0.63669485 7 0
2.5299063 1.1684449 -0.64336002 5 1
3.0768173 1.4197364 -0.65867269 3 2
3.9194107 1.8077025 -0.68361872 5 3
5.3563938 2.4682012 -0.72414774 3 4
8.6128931 3.9651315 -0.82954836 1 5
2.1603336 0.9895345 -0.63669485 7 0
2.5446012 1.1644728 -0.64605945 5 1
3.0672259 1.4029915 -0.65561974 3 2
3.9310875 1.7964723 -0.68455732 5 3
5.3794236 2.4560831 -0.72609758 3 4
8.6158047 3.9300833 -0.82850248 1 5
2.1586683 0.97921509 -0.63514197 7 0
2.5521998 1.1571934 -0.64695925 5 1
3.0795012 1.3949796 -0.65714622 3 2
3.9394445 1.7828676 -0.68487018 6 3
5.3951998 2.4405618 -0.72707254 3 4
8.6167622 3.8942387 -0.82728231 1 5
2.1620729 0.97167444 -0.63514197 7 0
2.5439806 1.142242 -0.64380991 6 1
3.0843515 1.3842224 -0.65714622 3 2
3.9348295 1.7642553 -0.68299294 6 3
5.404108 2.4207721 -0.72707254 3 4
8.6412153 3.8690197 -0.82832819 1 5
2.1689818 0.96569246 -0.63617724 6 0
2.540632 1.1306319 -0.64201027 5 1
3.1035166 1.3798274 -0.66019917 3 2
3.9442673 1.7528042 -0.68361872 5 3
5.4121065 2.4028366 -0.72707254 3 4
8.6692352 3.8453012 -0.82972264 1 5
2.1810091 0.96239442 -0.63876545 7 0
2.5463467 1.122542 -0.64246023 5 1
3.1008885 1.3663623 -0.65867269 3 2
3.9575942 1.742208 -0.68487018 6 3
5.4095573 2.3791392 -0.72561014 3 4
8.6716614 3.8102052 -0.82867676 1 5
2.1774404 0.95130092 -0.63669485 7 0
2.5609651 1.1183252 -0.6451596 5 1
3.1022763 1.3534184 -0.65790945 3 2
3.9675744 1.7292703 -0.68549597 6 3
5.4214692 2.3618257 -0.72609758 3 4
8.6885614 3.7815042 -0.82902539 1 5
2.1701102 0.93909061 -0.63358909 7 0
2.5668352 1.1097052 -0.6456095 5 1
3.1033778 1.3410228 -0.65714622 3 2
3.9808414 1.7185413 -0.68674743 5 3
5.4556088 2.3529439 -0.72950995 3 4
8.6980495 3.749573 -0.82867676 1 5
2.1787019 0.93379325 -0.63514197 6 0
2.5669184 1.099653 -0.64470971 5 1
3.1098444 1.3309549 -0.6575278 3 2
3.9683561 1.6975623 -0.68361872 6 3
5.4524288 2.3301601 -0.72804755 3 4
8.6964283 3.7129273 -0.82728231 1 5
2.1888988 0.92958432 -0.63721251 7 0
2.5617712 1.086881 -0.64246023 6 1
3.1196637 1.3229336 -0.65867269 3 2
3.977895 1.6852418 -0.68424439 5 3
5.4970922 2.3265865 -0.73292232 3 4
8.7380505 3.69649 -0.83007127 1 5
2.1939113 0.92268634 -0.63773018 7 0
2.567158 1.0791343 -0.64291006 6 1
3.1315031 1.3150772 -0.66019917 3 2
3.9834619 1.6720402 -0.68424439 6 3
5.4791474 2.2975984 -0.72950995 3 4
8.7361984 3.6598091 -0.82867676 1 5
2.1916096 0.9131763 -0.63617724 7 0
2.579905 1.0739105 -0.6451596 6 1
3.121346 1.2986513 -0.65714622 3 2
4.0002193 1.6626732 -0.68612164 5 3
5.4834671 2.2769372 -0.7290225 3 4
8.7470818 3.6285262 -0.82850248 1 5
2.1806538 0.8992461 -0.63203615 7 0
2.5980513 1.0708398 -0.64875883 7 1
3.1260846 1.2872031 -0.65714622 3 2
4.0044594 1.6472499 -0.68580878 5 3
5.5060697 2.2638199 -0.73097235 3 4
8.7357349 3.5881321 -0.82623643 1 5
46.09433 18.904673 -0.86961854 17 7
2.1945105 0.8960107 -0.63514197 6 0
2.5893283 1.0561576 -0.6456095 6 1
3.137831 1.2792469 -0.65867269 3 2
4.0010376 1.6295351 -0.68424439 5 3
5.5143294 2.2436252 -0.73097235 3 4
8.7629719 3.5636189 -0.82763088 1 5
2.1976249 0.88834441 -0.63514197 6 0
2.5839634 1.0434661 -0.64336002 6 1
3.1568413 1.2741653 -0.66172564 3 2
4.0085325 1.6163005 -0.68455732 5 3
5.5147629 2.2213945 -0.7299974 3 4
8.7975359 3.5419397 -0.82972264 1 5
2.2114739 0.88497365 -0.63824779 7 0
2.5948284 1.0373328 -0.6451596 6 1
3.1576238 1.2616802 -0.6609624 3 2
4.0269928 1.6074234 -0.68674743 5 3
5.5077319 2.19625 -0.72804755 3 4
8.8246517 3.517112 -0.83111715 1 5
2.2109571 0.87582737 -0.63721251 6 0
2.6000662 1.0294391 -0.6456095 6 1
3.154705 1.2477642 -0.65943593 4 2
4.0286274 1.5926069 -0.68612164 5 3
5.5186772 2.1794331 -0.728535 3 4
8.8183422 3.4789727 -0.82937407 2 5
2.2048573 0.86496258 -0.6346243 6 0
2.6054585 1.0210671 -0.64605945 6 1
3.1515138 1.2344311 -0.65790945 3 2
4.0286436 1.5763742 -0.68518305 5 3
5.5225539 2.158709 -0.72804755 3 4
8.8353987 3.4518836 -0.82989693 2 5
2.2096643 0.85795951 -0.63514197 6 0
2.6071892 1.0112634 -0.6456095 7 1
3.163126 1.2262604 -0.65943593 3 2
4.0285945 1.5601646 -0.68424439 5 3
5.5522723 2.1480122 -0.73097235 3 4
8.8455334 3.4203088 -0.82972264 2 5
2.2144489 0.85093462 -0.63565958 6 0
2.6016071 0.99866378 -0.64336002 6 1
3.1710532 1.2166188 -0.66019917 4 2
4.0321722 1.5453848 -0.68393159 5 3
5.5523205 2.1257799 -0.7299974 3 4
8.8797493 3.3979535 -0.83181441 1 5
2.2282398 0.8473199 -0.63876545 7 0
2.6123638 0.99234498 -0.6451596 6 1
3.178951 1.2069367 -0.6609624 3 2
4.0486236 1.5355043 -0.68580878 5 3
5.5448575 2.1007581 -0.72804755 3 4
8.8878288 3.3655276 -0.83146584 1 5
2.2257597 0.83749509 -0.63721251 6 0
2.6194606 0.98459071 -0.64605945 6 1
3.1721179 1.1916893 -0.65867269 3 2
4.0521097 1.5206674 -0.68549597 5 3
5.5633087 2.085572 -0.72950995 3 4
8.8883295 3.330286 -0.83041996 1 5
2.2268591 0.82904702 -0.63669485 6 0
2.6320143 0.97883677 -0.64830893 6 1
3.1762581 1.1806099 -0.65867269 4 2
4.0555415 1.5058249 -0.68518305 5 3
5.5593872 2.0619991 -0.72804755 4 4
8.8924284 3.2964671 -0.82972264 1 5
2.2243011 0.81926519 -0.63514197 6 0
2.6335859 0.96897107 -0.64785904 6 1
3.1877308 1.172225 -0.66019917 4 2
4.0552101 1.4896169 -0.68424439 5 3
5.5665517 2.0425792 -0.72804755 4 4
8.930068 3.2750125 -0.83216298 1 5
2.2344077 0.81414181 -0.63721251 7 0
2.6184735 0.9535647 -0.64336002 6 1
3.1954927 1.1624336 -0.6609624 3 2
4.0582709 1.475487 -0.68393159 5 3
5.5919528 2.0308862 -0.7304849 3 4
8.913352 3.2336266 -0.82954836 2 5
2.2407296 0.80803883 -0.63824779 7 0
2.6236198 0.94507843 -0.64380991 6 1
3.1919408 1.149171 -0.65943593 3 2
4.0689735 1.4633163 -0.68487018 5 3
5.5765901 2.003299 -0.72756004 3 4
8.9296503 3.2060723 -0.83007127 2 5
2.2362587 0.79761583 -0.63617724 6 0
2.6452596 0.94245535 -0.64830893 7 1
3.1959329 1.1380211 -0.65943593 3 2
4.0833621 1.4524148 -0.68643451 6 3
5.6022544 1.9904655 -0.7299974 3 4
8.9445429 3.1762183 -0.83041996 1 5
2.2353857 0.78851902 -0.63514197 6 0
2.6448574 0.93191999 -0.64740908 6 1
3.2035902 1.1281618 -0.66019917 4 2
4.086544 1.4374958 -0.68612164 6 3
5.6166582 1.973534 -0.73097235 3 4
8.9330187 3.1370521 -0.82832819 2 5
2.2435963 0.78262061 -0.63669485 6 0
2.6370525 0.91883671 -0.64470971 5 1
3.2000921 1.1143904 -0.65867269 4 2
4.0840745 1.4206253 -0.68487018 6 3
5.6085124 1.9487026 -0.7290225 4 4
8.9476786 3.1071558 -0.82867676 2 5
2.2481411 0.77541351 -0.63721251 7 0
2.6365592 0.90835583 -0.64380991 5 1
3.2151005 1.1070474 -0.6609624 4 2
4.0871396 1.4057208 -0.68455732 5 3
5.6378093 1.9368542 -0.73194736 3 4
8.9697742 3.0797918 -0.82972264 3 5
2.2654612 0.77255112 -0.64135361 7 0
2.6434033 0.90040296 -0.64470971 5 1
3.2152276 1.0945548 -0.66019917 4 2
4.0995026 1.3939884 -0.68580878 5 3
5.6257396 1.9107769 -0.72950995 3 4
8.9748116 3.0465391 -0.82919973 3 5
2.2498384 0.75846648 -0.63617724 6 0
2.6557643 0.89428025 -0.64695925 6 1
3.2078648 1.0795667 -0.65790945 3 2
4.1137056 1.3828177 -0.6873731 5 3
5.6399031 1.8936539 -0.7304849 3 4
8.9872789 3.0158284 -0.82937407 2 5
2.2378099 0.74572182 -0.63203615 6 0
2.6625679 0.88623464 -0.64785904 6 1
3.2153397 1.0696012 -0.65867269 4 2
4.1203823 1.3690717 -0.68768603 5 3
5.6540146 1.8764575 -0.73145986 3 4
8.9712782 2.9756548 -0.82693368 3 5
2.2569132 0.74334544 -0.63669485 6 0
2.6582406 0.8744998 -0.64605945 6 1
3.2227833 1.0595981 -0.65943593 4 2
4.111999 1.3503652 -0.68549597 5 3
5.6564336 1.8564608 -0.73097235 3 4
8.9872904 2.9461803 -0.82745659 3 5
2.2667139 0.73824966 -0.63876545 6 0
2.65186 0.86266631 -0.64380991 5 1
3.2337482 1.0513322 -0.6609624 4 2
4.1145744 1.3361144 -0.68518305 5 3
5.6701117 1.840143 -0.73194736 3 4
8.9951143 2.9157531 -0.82728231 2 5
2.2673101 0.73013711 -0.63824779 7 0
2.6565614 0.85446352 -0.64425981 6 1
3.2411363 1.0412396 -0.66172564 4 2
4.122745 1.3236694 -0.68580878 5 3
5.6689386 1.8179158 -0.73097235 3 4
9.0166225 2.8879805 -0.82832819 2 5
2.266289 0.72065181 -0.63721251 6 0
2.668962 0.84766978 -0.64650929 5 1
3.2337027 1.0257906 -0.65943593 4 2
4.1351008 1.3109366 -0.68706024 5 3
5.667994 1.7947274 -0.7299974 3 4
9.0309448 2.8561172 -0.82867676 2 5
2.2615428 0.71002531 -0.63514197 7 0
2.6739104 0.83846551 -0.64695925 6 1
3.2335169 1.0133231 -0.65867269 3 2
4.1417632 1.2963629 -0.6873731 5 3
5.6934805 1.7798654 -0.73243481 3 4
9.0332527 2.8221967 -0.82797951 2 5
2.2658525 0.70269948 -0.63565958 7 0
2.6730978 0.8279742 -0.64605945 6 1
3.2407849 1.0031916 -0.65943593 4 2
4.1349397 1.2783955 -0.68549597 5 3
5.6731052 1.7517796 -0.7290225 3 4
9.0544729 2.7941701 -0.82902539 2 5
2.2775271 0.69761413 -0.63824779 7 0
2.6685178 0.8163572 -0.64425981 6 1
3.2517772 0.99416828 -0.6609624 3 2
4.1412659 1.2645319 -0.68580878 5 3
5.6829815 1.7331281 -0.72950995 3 4
9.0775108 2.7666152 -0.83024555 2 5
2.2799482 0.68966031 -0.63824779 6 0
2.6674793 0.80637634 -0.64336002 6 1
3.2514687 0.98167717 -0.66019917 4 2
4.141654 1.2496516 -0.68518305 5 3
5.6848969 1.7131261 -0.7290225 3 4
9.0928383 2.7366321 -0.83076853 1 5
2.2822227 0.68209648 -0.63824779 7 0
2.6702781 0.79705948 -0.64336002 6 1
3.2509432 0.96976769 -0.65943593 4 2
4.1497774 1.2363139 -0.68580878 5 3
5.6832318 1.6910056 -0.72804755 3 4
9.094223 2.7041943 -0.83007127 1 5
2.2716198 0.67029816 -0.6346243 7 0
2.685991 0.79205763 -0.64650929 5 1
3.2505424 0.95730376 -0.65867269 4 2
4.1519599 1.221987 -0.68549597 5 3
5.7078533 1.6777493 -0.7304849 3 4
9.0921364 2.6690679 -0.82902539 1 5
2.2775397 0.66384202 -0.63565958 6 0
2.6775124 0.77941096 -0.64380991 5 1
3.26878 0.95090562 -0.66172564 4 2
4.1505084 1.2058361 -0.68455732 5 3
5.7174883 1.6589197 -0.73097235 3 4
9.0860891 2.6328754 -0.82763088 1 5
2.2892404 0.65815932 -0.63824779 7 0
2.676471 0.76898289 -0.64291006 5 1
3.2646947 0.93675333 -0.66019917 4 2
4.1586981 1.1917027 -0.68518305 5 3
5.7156105 1.6367669 -0.7299974 3 4
9.0952244 2.601145 -0.82763088 2 5
2.2878072 0.64910918 -0.63721251 7 0
2.6773965 0.75863737 -0.64246023 5 1
3.2868347 0.93069971 -0.66401535 3 2
4.1704359 1.17933 -0.68643451 5 3
5.7177496 1.6147294 -0.72950995 3 4
9.1123686 2.569953 -0.82832819 2 5
2.2883103 0.64019966 -0.63669485 7 0
2.6837819 0.75033557 -0.64336002 5 1
3.2675323 0.91231173 -0.65943593 3 2
4.1785359 1.1650966 -0.68706024 5 3
5.7118783 1.5915625 -0.72804755 3 4
9.109766 2.5349264 -0.82728231 1 5
2.2866964 0.63157964 -0.63565958 6 0
2.7032917 0.74562681 -0.64740908 5 1
3.2743251 0.90251529 -0.66019917 3 2
4.1785674 1.1501861 -0.68643451 5 3
5.7327123 1.5758224 -0.7299974 3 4
9.1104364 2.502594 -0.82658505 2 5
2.2851591 0.62257856 -0.6346243 6 0
2.7019892 0.73563361 -0.64650929 5 1
3.2850332 0.89314127 -0.66172564 3 2
4.1690149 1.1326964 -0.68424439 5 3
5.737906 1.5568043 -0.7299974 3 4
9.1171942 2.4702542 -0.82641071 2 5
2.2928083 0.61650157 -0.63617724 6 0
2.6894841 0.7221539 -0.64291006 5 1
3.2841849 0.88122433 -0.6609624 3 2
4.1805758 1.120181 -0.68549597 5 3
5.7433052 1.5367671 -0.7299974 4 4
9.1368847 2.4430921 -0.82745659 1 5
2.3024154 0.61047423 -0.63824779 6 0
2.6844528 0.71076816 -0.64111048 6 1
3.2948327 0.87176275 -0.66248888 3 2
4.1863699 1.1060888 -0.68580878 5 3
5.7332797 1.512657 -0.72804755 3 4
9.1607676 2.4152534 -0.8288511 1 5
2.3007946 0.60145581 -0.63721251 6 0
2.7020023 0.70533031 -0.64470971 6 1
3.2902572 0.85827327 -0.6609624 3 2
4.2035866 1.0949531 -0.68799889 5 3
5.7423668 1.4936355 -0.728535 4 4
9.1421471 2.3762424 -0.82641071 1 5
2.2935259 0.59101212 -0.6346243 6 0
2.7195461 0.6997785 -0.64830893 5 1
3.2932327 0.84678519 -0.6609624 4 2
4.1939902 1.0768334 -0.68580878 5 3
5.7437005 1.4725944 -0.72804755 3 4
9.1388063 2.3413465 -0.82536483 1 5
68.013199 17.374313 -1.2252985 44 7
2.29932 0.58395308 -0.63565958 6 0
2.7068603 0.68644959 -0.64470971 5 1
3.2999749 0.83624816 -0.66172564 3 2
4.188148 1.059765 -0.68424439 5 3
5.7565045 1.4544797 -0.7290225 3 4
9.1372633 2.3069947 -0.82449329 2 5
2.3032184 0.57639289 -0.63617724 6 0
2.6997874 0.6746338 -0.64246023 5 1
3.3028736 0.82472473 -0.66172564 3 2
4.1956558 1.0460939 -0.68487018 5 3
5.7731032 1.4372584 -0.7304849 3 4
9.1626635 2.2794125 -0.82606214 1 5
2.3127189 0.57019877 -0.63824779 7 0
2.6983409 0.66427588 -0.64156044 5 1
3.309545 0.8141275 -0.66248888 3 2
4.2011995 1.031914 -0.68518305 5 3
5.75495 1.411422 -0.72756004 3 4
9.1666927 2.2464683 -0.82571346 1 5
2.3090637 0.56075412 -0.63669485 6 0
2.7139003 0.65806669 -0.64470971 5 1
3.3047349 0.80071998 -0.6609624 4 2
4.2124557 1.0191016 -0.68643451 5 3
5.759841 1.3913261 -0.72756004 3 4
9.1744785 2.2144587 -0.82571346 1 5
2.3072488 0.55179352 -0.63565958 6 0
2.7199719 0.64949387 -0.6456095 5 1
3.3075099 0.78918016 -0.6609624 3 2
4.219831 1.0053056 -0.68706024 5 3
5.7646632 1.3712105 -0.72756004 3 4
9.1588926 2.1768894 -0.82362181 1 5
2.3110416 0.54417849 -0.63617724 7 0
2.7202137 0.64002472 -0.6451596 6 1
3.3140666 0.77852863 -0.66172564 3 2
4.2173719 0.98995328 -0.68612164 6 3
5.7885056 1.3566173 -0.7299974 3 4
9.1741943 2.1467233 -0.82431901 1 5
2.3090696 0.53563803 -0.63514197 6 0
2.7053452 0.62656754 -0.64111048 6 1
3.324281 0.7693041 -0.66325212 3 2
4.2227268 0.97566944 -0.68643451 5 3
5.7893367 1.3355123 -0.72950995 3 4
9.1967955 2.1198664 -0.82571346 1 5
2.3184588 0.52929503 -0.63721251 6 0
2.7227156 0.62058544 -0.64470971 5 1
3.3269458 0.75769621 -0.66325212 3 2
4.2280331 0.96136242 -0.68674743 5 3
5.7939634 1.315294 -0.72950995 3 4
9.192481 2.0851083 -0.82466763 1 5
2.3146379 0.5199281 -0.63565958 7 0
2.7286682 0.61193109 -0.6456095 5 1
3.3257391 0.74521893 -0.66248888 4 2
4.2390738 0.94832373 -0.68799889 6 3
5.7752719 1.2898674 -0.72658509 3 4
9.2035913 2.0538776 -0.82501626 1 5
2.30512 0.50934601 -0.63255376 6 0
2.7326908 0.60282159 -0.64605945 5 1
3.32832 0.7336061 -0.66248888 3 2
4.2365704 0.93224621 -0.68706024 5 3
5.7874942 1.2714051 -0.72756004 3 4
9.1834612 2.0157559 -0.82257593 1 5
2.3125474 0.50252658 -0.6341067 6 0
2.7385871 0.5941059 -0.64695925 5 1
3.3270233 0.7211526 -0.66172564 3 2
4.2301455 0.91536409 -0.68549597 5 3
5.8307037 1.2595768 -0.73243481 4 4
9.1982317 1.9853662 -0.82327312 1 5
2.3161769 0.49485427 -0.6346243 6 0
2.7273033 0.58169663 -0.64380991 5 1
3.3410413 0.71198899 -0.66401535 3 2
4.2391114 0.90182459 -0.68643451 5 3
5.8001122 1.2317973 -0.72804755 3 4
9.2090034 1.9540755 -0.82362181 1 5
24.005657 5.0850611 -1.2859992 4 6
2.3273432 0.48875198 -0.63721251 7 0
2.7274098 0.5717724 -0.64336002 5 1
3.3338981 0.69831049 -0.66210729 3 2
4.2461009 0.88782924 -0.68706024 5 3
5.8004904 1.2107308 -0.72756004 3 4
9.2118673 1.921102 -0.82327312 1 5
2.3157914 0.47789139 -0.63358909 6 0
2.7369251 0.56429946 -0.6451596 5 1
3.3228548 0.68389744 -0.65943593 3 2
4.2528915 0.87454051 -0.68768603 5 3
5.7966962 1.1898909 -0.72658509 3 4
9.2165642 1.8885415 -0.82309878 2 5
2.3135767 0.46944144 -0.63255376 6 0
2.7484281 0.55667722 -0.64740908 5 1
3.3289533 0.6736542 -0.66019917 3 2
4.255918 0.85969061 -0.68768603 5 3
5.8280573 1.1751409 -0.7299974 3 4
9.2250538 1.8567487 -0.82327312 1 5
2.324755 0.46284524 -0.63514197 6 0
2.746532 0.54631895 -0.64650929 5 1
3.3429534 0.66374314 -0.66248888 3 2
4.2493515 0.8421669 -0.68612164 5 3
5.8360176 1.1555653 -0.7304849 3 4
9.2334347 1.8249199 -0.82344747 2 5
24.074318 4.7493796 -1.2859992 4 6
2.3187728 0.45324448 -0.63307142 6 0
2.7351272 0.53363711 -0.64336002 5 1
3.3452501 0.65206915 -0.66248888 4 2
4.2542048 0.82770497 -0.68643451 5 3
5.8324189 1.1326522 -0.72950995 3 4
9.2459288 1.7922049 -0.82397038 1 5
2.3393912 0.44837967 -0.63824779 7 0
2.7350593 0.52371925 -0.64291006 5 1
3.3476174 0.63980454 -0.66248888 3 2
4.2572098 0.81210786 -0.68643451 5 3
5.8168373 1.1085684 -0.72707254 3 4
9.2364702 1.7569431 -0.82257593 3 5
2.3332715 0.43918949 -0.63617724 7 0
2.7426164 0.51524895 -0.64425981 5 1
3.3420029 0.62725043 -0.6609624 4 2
4.2734709 0.80053085 -0.68862462 6 3
5.8206716 1.0882583 -0.72707254 4 4
9.2696648 1.7314231 -0.82501626 2 5
23.828218 4.4421182 -1.2702985 4 6
2.321492 0.42858756 -0.63255376 7 0
2.7538919 0.50791907 -0.64650929 5 1
3.3518953 0.61700159 -0.66248888 4 2
4.2702737 0.78528416 -0.68768603 5 3
5.8320584 1.0703821 -0.72804755 4 4
9.2521353 1.6947452 -0.82292449 1 5
23.842819 4.3630695 -1.2702985 4 6
2.3248012 0.42123175 -0.63307142 7 0
2.7498951 0.49726206 -0.6451596 5 1
3.3461947 0.60448921 -0.6609624 4 2
4.2671571 0.76932073 -0.68674743 5 3
5.831852 1.049316 -0.72756004 4 4
9.2518215 1.662999 -0.82240158 2 5
2.3300617 0.41378903 -0.6341067 7 0
2.7477765 0.48698056 -0.64425981 5 1
3.3521509 0.59348875 -0.66172564 4 2
4.2678709 0.75407803 -0.68643451 5 3
5.8393893 1.0296406 -0.72804755 4 4
9.2634563 1.6317328 -0.82292449 2 5
2.3410082 0.40730819 -0.63669485 6 0
2.7456198 0.4767186 -0.64336002 5 1
3.3580709 0.58245403 -0.66248888 4 2
4.2743697 0.73984843 -0.68706024 5 3
5.8114743 1.0048604 -0.72414774 3 4
9.2808762 1.6014177 -0.82397038 1 5
23.958057 4.12537 -1.2740667 4 6
2.3328245 0.39791811 -0.6341067 7 0
2.7452643 0.46728474 -0.64291006 5 1
3.3445001 0.5686813 -0.65943593 3 2
4.2865376 0.72732323 -0.68862462 6 3
5.8304319 0.98823559 -0.72609758 3 4
9.2822065 1.5699697 -0.82362181 1 5
2.3303201 0.38954455 -0.63307142 6 0
2.7640986 0.46106344 -0.64695925 5 1
3.3424945 0.55694437 -0.65867269 3 2
4.2889261 0.71310335 -0.68862462 6 3
5.8299294 0.96723187 -0.72561014 3 4
9.2836981 1.5369058 -0.82327312 2 5
23.913952 3.9546518 -1.2702985 4 6
2.3298259 0.38068873 -0.63255376 6 0
2.7541511 0.44953051 -0.64425981 5 1
3.3561397 0.5465824 -0.6609624 3 2
4.2778621 0.69516188 -0.68643451 5 3
5.8567834 0.95069087 -0.728535 3 4
9.2634392 1.5003512 -0.82100707 2 5
23.928288 3.8669584 -1.2702985 4 6
2.3425863 0.37438357 -0.63565958 6 0
2.7326875 0.43574864 -0.638861 5 1
3.365782 0.53609991 -0.66248888 3 2
4.2763615 0.67960393 -0.68580878 5 3
5.8406219 0.92611074 -0.72609758 3 4
9.2784595 1.4695625 -0.82187861 1 5
2.3496051 0.36709812 -0.63721251 6 0
2.749521 0.42908874 -0.64246023 5 1
3.3656933 0.52404493 -0.66210729 3 2
4.2903028 0.66724151 -0.68768603 5 3
5.835815 0.90551835 -0.72512263 3 4
9.2756577 1.4359485 -0.82118142 2 5
23.954054 3.7040055 -1.2702985 4 6
2.3412609 0.3578456 -0.6346243 6 0
2.752928 0.41978279 -0.64291006 5 1
3.3557673 0.51110804 -0.65981752 3 2
4.2965112 0.65285587 -0.6883117 5 3
5.8350148 0.88454545 -0.72463518 3 4
9.2806129 1.4035637 -0.82118142 2 5
23.868095 3.6054451 -1.2650648 4 6
2.334914 0.34812191 -0.63255376 6 0
2.7563045 0.41045704 -0.64336002 5 1
3.3556762 0.49851573 -0.65943593 3 2
4.2969213 0.63681328 -0.68799889 5 3
5.8380671 0.86417323 -0.72463518 3 4
9.2815132 1.3705751 -0.82083273 2 5
2.3361149 0.33996993 -0.63255376 6 0
2.7597189 0.40063253 -0.64380991 5 1
3.3437953 0.48482791 -0.65676457 3 2
4.2815228 0.61926633 -0.68518305 5 3
5.8490543 0.84390515 -0.72561014 3 4
9.2822971 1.3376019 -0.82048416 2 5
23.794437 3.4203482 -1.2598312 4 6
2.3468506 0.33317149 -0.63514197 6 0
2.7475939 0.38908347 -0.64066058 5 1
3.3590744 0.47507814 -0.65943593 3 2
4.2856145 0.60459208 -0.68549597 6 3
5.8558955 0.82403457 -0.72609758 3 4
9.2869101 1.30519 -0.82048416 2 5
2.3499131 0.32524163 -0.63565958 6 0
2.7566571 0.38055679 -0.64246023 5 1
3.3626573 0.46361718 -0.65981752 3 2
4.3013973 0.59151351 -0.68768603 6 3
5.8469362 0.80197144 -0.72463518 3 4
9.2953568 1.2733073 -0.82083273 2 5
23.718792 3.2406299 -1.2545977 4 6
2.3548629 0.31755263 -0.63669485 6 0
2.7541063 0.37041169 -0.64156044 5 1
3.3447976 0.44926205 -0.65600139 3 2
4.3014779 0.57623178 -0.6873731 5 3
5.8615055 0.78313541 -0.72609758 3 4
9.2918463 1.2397964 -0.82013553 1 5
23.634928 3.1451864 -1.2495735 4 6
2.3348877 0.30656484 -0.63100088 6 0
2.7573142 0.3610507 -0.64201027 5 1
3.3482919 0.43783906 -0.65638298 3 2
4.3015046 0.56095672 -0.68706024 6 3
5.8523927 0.76113254 -0.72463518 3 4
9.2763596 1.2047856 -0.8183924 1 5
2.3493576 0.30012566 -0.6346243 6 0
2.7546916 0.35093045 -0.64111048 4 1
3.3614855 0.42763439 -0.65867269 3 2
4.2838397 0.54345512 -0.68393159 6 3
5.870769 0.74269366 -0.72658509 3 4
9.288414 1.1734029 -0.81908965 1 5
2.3542249 0.2924009 -0.63565958 5 0
2.7481642 0.34035382 -0.6393109 5 1
3.3629575 0.41590029 -0.65867269 3 2
4.2876711 0.52873904 -0.68424439 6 3
5.8615041 0.72074115 -0.72512263 3 4
