# .PCD v0.7 - Point Cloud Data file format
VERSION 0.7
FIELDS x y z intensity
SIZE 4 4 4 4
TYPE F F F F
COUNT 1 1 1 1
WIDTH 1114
HEIGHT 1
VIEWPOINT 0 0 0 1 0 0 0
POINTS 1114
DATA ascii
11.502355 -0.77738643 -1.2993429 1.0959997
11.695202 -0.74128348 -1.2021774 1.0668747
11.9087 -0.76323879 -1.264734 1.0761561
12.071711 -0.62283927 -1.2200357 1.0924765
12.263885 -0.7434293 -1.2774864 1.0946561
12.441381 -0.73514056 -1.2750889 1.0937811
12.736706 -0.73501116 -1.2336872 1.0949844
12.858711 -0.76562315 -1.2539614 1.0949404
13.079643 -0.69816381 -1.2468231 1.0936136
13.249407 -0.7434541 -1.2701308 1.0927263
13.466858 -0.71668458 -1.2050076 1.0684688
13.913776 -0.69339848 -1.2481759 1.05725
14.112213 -0.75685155 -1.2148623 1.0944333
14.223183 -0.76783162 -1.2495043 1.0936749
14.461658 -0.74545574 -1.289613 1.0890779
14.759908 -0.66640902 -1.2631485 1.0728749
14.919097 -0.71356642 -1.3103297 1.0947607
15.034529 -0.73815125 -1.2583907 1.0938232
15.252527 -0.70049304 -1.2954707 1.0928593
15.535113 -0.64807838 -1.2218289 1.0906345
15.713305 -0.73570287 -1.2555228 1.0910138
15.950066 -0.74243021 -1.2126262 1.0928309
16.108242 -0.75898242 -1.2689495 0.95732886
16.25416 -0.67368805 -1.3045416 1.0843036
16.503761 -0.63922054 -1.2825416 0.86288285
16.684683 -0.75031894 -1.3321074 1.0941031
16.872372 -0.68004692 -1.2786489 1.0918543
17.123257 -0.6954298 -1.2744745 1.0928349
17.334549 -0.61705923 -1.247946 1.0962092
17.482441 -0.63700485 -1.3313235 0.59783798
17.70359 -0.70469916 -1.2991304 0.60056251
17.973358 -0.72454435 -1.2119904 1.090865
18.11301 -0.72152269 -1.2308383 0.10594165
-1.816098 -0.51645803 -1.3070018 1.0410781
-1.7301135 -0.57848054 -1.2050552 0.69158876
-1.5319588 -0.58146882 -1.2185452 0.3000049
-1.3272877 -0.54928792 -1.3334877 1.0396276
-1.0859052 -0.52256382 -1.2459836 0.98254001
-0.8764751 -0.53420782 -1.2219441 0.54600358
-0.74269867 -0.49886703 -1.2554268 1.0585624
-0.48938793 -0.48544392 -1.249728 1.0584061
-0.21034534 -0.46537745 -1.2457182 1.0422499
-0.093305126 -0.49096102 -1.250953 1.0743749
4.0855408 -0.57720208 -1.2571678 1.0769999
4.3543396 -0.48792356 -1.2718568 1.10725
4.5381126 -0.50716734 -1.2760398 1.107
4.7625813 -0.46708775 -1.25476 1.10675
4.9335837 -0.54830813 -1.2230909 1.045375
5.1146193 -0.48900557 -1.2403345 1.091125
5.3013506 -0.47441369 -1.211269 1.076375
5.5854998 -0.44162011 -1.2217481 1.10475
5.7045021 -0.57748079 -1.2132889 0.2335639
5.9510651 -0.57618868 -1.2241318 0.35546905
6.0318356 -0.57121867 -1.2270267 0.59123439
6.3823624 -0.57777882 -1.2141514 0.10742903
6.4493542 -0.55609167 -1.2177603 0.35703722
6.6788301 -0.5377537 -1.2298143 1.0465373
6.8485203 -0.58124751 -1.2204084 0.13769709
7.0708389 -0.5620175 -1.2107054 0.16372265
7.3237805 -0.56114662 -1.2102259 0.107766
7.4765425 -0.57611102 -1.215633 0.10775872
7.6565652 -0.57503045 -1.2158335 0.21807238
7.9386444 -0.57873821 -1.2181464 0.21594042
8.1391106 -0.55964291 -1.2154912 0.090003163
8.3083324 -0.58415604 -1.2331901 0.22736749
8.5707855 -0.47354612 -1.2897542 1.0787499
8.6488094 -0.53833807 -1.2546153 0.84030801
8.9050789 -0.48382863 -1.3441288 1.0407858
9.0899782 -0.58926278 -1.2484527 0.5756911
9.3143635 -0.48804155 -1.2247496 0.8442958
9.4912624 -0.48388869 -1.3435466 1.1059043
9.6805983 -0.48999625 -1.3150924 1.1046875
9.9075756 -0.48419011 -1.3100197 1.1040683
10.107908 -0.50191683 -1.3845394 1.1075
10.313994 -0.58700466 -1.2260342 1.05475
11.040092 -0.57146376 -1.2003156 1.0964999
11.28012 -0.58042264 -1.2082708 1.0957499
11.962597 -0.59173691 -1.2080889 1.0949998
13.088961 -0.59250557 -1.2038124 1.0926249
13.316725 -0.57401067 -1.2072234 1.09025
13.919275 -0.56644642 -1.2299051 1.0713751
14.198895 -0.5885582 -1.2128928 1.0897498
14.265392 -0.53414822 -1.215835 1.056875
14.545546 -0.59308285 -1.2440907 1.0559998
14.669161 -0.49893236 -1.2129711 1.0939999
14.918749 -0.54586184 -1.2240274 1.0934374
15.067396 -0.55280697 -1.2306812 1.0840001
15.310156 -0.54198325 -1.2268553 1.08325
15.423868 -0.51880199 -1.2289045 1.07375
15.742389 -0.55890918 -1.2614521 1.0534999
15.885389 -0.48125204 -1.2326994 1.0530741
16.146797 -0.51348984 -1.2324491 1.0836092
16.270683 -0.5077132 -1.225392 0.83121938
16.465117 -0.55689979 -1.2256088 1.0640618
16.676834 -0.56354094 -1.2367618 0.97813332
16.893795 -0.57976675 -1.2312955 0.96870112
17.139488 -0.572532 -1.2964811 0.11953415
17.318737 -0.57214379 -1.2540202 0.60180217
17.55899 -0.45896366 -1.2558491 0.11176401
17.655893 -0.54023772 -1.2961719 0.47266662
17.941769 -0.53505647 -1.2625591 1.0797564
18.088379 -0.49296746 -1.2382932 0.14014798
-1.8222749 -0.26795843 -1.2618375 1.0392115
-1.6793611 -0.25371328 -1.24804 1.0398116
-1.5109951 -0.35333312 -1.2465811 1.0414219
-1.3485265 -0.24205744 -1.2861511 1.0393511
-1.197449 -0.30217841 -1.2966243 1.10975
4.8745031 -0.35815996 -1.2045251 1.10675
5.5385323 -0.38713688 -1.2033721 1.10575
5.8347077 -0.39987504 -1.2010844 1.10525
7.9478054 -0.26662725 -1.2684765 1.10725
8.0381145 -0.26863152 -1.2640759 1.107125
8.245162 -0.20119531 -1.2348691 1.107
8.5050144 -0.27440414 -1.2754985 1.107125
8.6873999 -0.31472236 -1.2675463 1.0915625
8.9340611 -0.33876249 -1.3081998 1.10725
9.0513153 -0.30327439 -1.2693229 1.1026719
9.3364544 -0.3691026 -1.2125077 1.0726249
9.4842625 -0.3179028 -1.2875777 1.1051484
9.8524446 -0.29045272 -1.2812734 1.1061133
15.399656 -0.37165159 -1.206825 1.0532498
15.487227 -0.3499541 -1.206708 1.053
15.724136 -0.37883502 -1.2053219 1.0524998
16.091217 -0.38889253 -1.2115579 1.052
16.664749 -0.35631853 -1.2160265 0.54983544
16.910522 -0.38300753 -1.2070872 0.10716474
17.099552 -0.36494419 -1.2117598 0.2021248
17.303902 -0.31100932 -1.2704573 0.098491363
17.438198 -0.31514215 -1.2714131 0.09929093
17.655987 -0.32498318 -1.2738132 0.098801441
17.838993 -0.32802069 -1.2727349 0.10783844
18.071033 -0.30134127 -1.2540475 0.098173201
-1.8406091 -0.17350136 -1.2547259 1.038625
-1.647404 -0.057686683 -1.2169306 1.0746408
-1.5436449 -0.14428945 -1.208756 1.0417343
-1.3580115 -0.15498692 -1.2365358 1.039
17.560291 -0.087797277 -1.3210361 1.0402498
17.65102 -0.19063492 -1.2794853 1.0432501
17.829693 -0.19720566 -1.2012283 1.0485001
18.02035 -0.037762586 -1.2722876 1.0411015
17.779432 0.17337887 -1.2928555 1.03825
18.024826 0.09808939 -1.2324064 1.0382344
17.37158 0.27140188 -1.2015629 1.03925
18.040236 0.28854221 -1.2111529 1.0387499
-1.6139537 -5.4362888 -1.0918682 1.0412211
-1.5460376 -5.4228973 -1.0480549 1.0413799
-1.3696773 -5.4195561 -1.0864329 1.0308791
-1.0733433 -5.4216633 -1.0577924 1.0300703
-0.9492507 -5.409955 -1.0683979 1.0305283
-0.66119117 -5.4055567 -1.0874351 1.0342498
-0.48715445 -5.4112158 -1.024065 1.0289998
-0.28665808 -5.4001698 -1.0854651 1.0342498
-0.082571797 -5.4056935 -1.0466849 1.0376251
0.16770299 -5.4227457 -1.0468464 1.0310001
0.61911362 -5.4019227 -1.0422421 1.03125
-1.8042226 -5.3029213 -1.0877739 1.0299666
-1.6091566 -5.2625628 -1.1259474 0.073499858
-1.5948327 -5.2675653 -1.1086645 0.072206594
-1.3558381 -5.3668971 -1.157558 1.0321304
-1.1041503 -5.3943725 -1.1093762 1.0313132
-0.91650319 -5.3967385 -1.0847034 1.0311253
-0.69083977 -5.374207 -1.0966043 1.0347643
-0.56951219 -5.3122315 -1.1004949 0.54834366
-0.32487237 -5.3871312 -1.0983001 1.0335833
-0.10335686 -5.3669643 -1.1248056 1.0324873
0.039523188 -5.3483343 -1.1083262 1.034477
0.28073007 -5.3618722 -1.102159 1.028645
0.54667598 -5.3473387 -1.1039553 1.0280596
0.66175151 -5.3419104 -1.1180725 1.0286431
0.93117696 -5.3373203 -1.109412 1.0278617
1.1503671 -5.3222866 -1.1380301 1.0277412
1.3005047 -5.3092823 -1.1399572 1.0282347
1.4698639 -5.3148365 -1.1160033 1.0271242
1.6361831 -5.3079834 -1.1363096 1.027524
1.8831215 -5.3359241 -1.0750797 1.0526031
2.0821724 -5.2835493 -1.1413834 1.0264988
2.2669163 -5.2805767 -1.1507845 1.0265173
2.5080512 -5.2695036 -1.1578431 1.0264604
2.7483168 -5.3089552 -1.0857457 1.0261852
2.8895321 -5.2600207 -1.1609478 1.0753579
3.1299529 -5.2415581 -1.0847955 1.0343783
3.3014195 -5.2454643 -1.1706262 1.0274223
3.4663334 -5.2452316 -1.0594901 1.0494553
3.6653559 -5.2177939 -1.0574424 1.0407608
3.8878427 -5.2627187 -1.0628309 1.0706369
4.0720344 -5.236218 -1.0116129 1.0516499
4.2790422 -5.2271891 -1.0706655 1.0432645
4.5155411 -5.2400398 -1.0469711 1.0320653
4.6580124 -5.2178164 -1.0243242 1.0397234
4.908577 -5.2289963 -1.0304215 1.0328863
5.1204433 -5.2404661 -1.0300004 1.0323607
5.3500829 -5.2253199 -1.11743 1.0765288
5.4823227 -5.2232571 -1.1227113 1.0280511
5.6989412 -5.2222471 -1.1221101 1.0295517
5.8601351 -5.2132797 -1.1457293 1.0342548
6.1007442 -5.2454567 -1.0310459 1.1010759
6.3467503 -5.2276793 -1.0289588 1.0439799
6.4989309 -5.2085333 -1.0405761 1.0350623
6.7424269 -5.2114353 -1.0246159 1.0273989
6.8608818 -5.2112141 -1.0298569 1.0377666
7.1019039 -5.2065659 -1.0259359 1.0367402
7.3340383 -5.2134495 -1.024027 1.0240188
7.4955606 -5.2202649 -1.0585716 1.0797774
7.6585569 -5.2078905 -1.0480204 1.0252328
7.8913288 -5.2064605 -1.0697706 0.68444991
8.0931435 -5.2040186 -1.068386 0.54639953
8.2846661 -5.2333283 -1.0410199 0.056249857
8.5467949 -5.2152491 -1.0683513 0.7974999
8.6956911 -5.2248497 -1.0068324 1.0303164
8.870882 -5.2298431 -1.0208846 1.0285556
9.0647402 -5.2142811 -1.0463729 0.91228139
9.328207 -5.2180986 -1.0328861 1.0482502
9.5024223 -5.2113714 -1.0487945 1.0405002
9.7727947 -5.2289748 -1.0430181 0.55199981
9.9730873 -5.2050896 -1.0197096 0.58610034
10.03017 -5.2231359 -1.0164202 0.79849976
10.331053 -5.2256403 -1.0188226 0.91946864
10.523544 -5.2179174 -1.0318917 0.55237508
10.732929 -5.2290058 -1.0593889 0.055750132
10.848291 -5.2079983 -1.0886068 0.056250095
11.140503 -5.226831 -1.0789149 0.056749821
11.259218 -5.2012434 -1.0880051 0.056749821
11.572197 -5.2093287 -1.1122723 0.056499958
11.949976 -5.2311254 -1.0201105 0.051249981
12.361882 -5.2444124 -1.0033801 0.052999496
12.469429 -5.2128534 -1.0200785 0.059250116
12.72925 -5.2344904 -1.0335164 0.055250168
12.945809 -5.2111888 -1.036906 0.050687313
13.338544 -5.2121558 -1.0790739 0.0537498
13.8593 -5.2097425 -1.0685755 0.054250002
14.49186 -5.2034183 -1.0663705 0.053500175
15.363551 -5.2052279 -1.0032058 0.073760353
15.479647 -5.2052879 -1.0075858 0.074986011
15.644525 -5.2035003 -1.0041056 0.072373763
16.057226 -5.2033892 -1.0077474 0.070975572
16.505302 -5.2266345 -1.0397855 0.053249836
17.099985 -5.2190905 -1.0366937 0.55637503
17.364269 -5.2022228 -1.0912203 0.052999973
17.602585 -5.20364 -1.0042722 1.1169996
17.953514 -5.2122459 -1.0198178 0.59115899
18.011955 -5.205936 -1.0083324 0.059999943
-1.8058369 -5.1518188 -1.1670246 1.0289834
-1.6303346 -5.1744003 -1.1646833 0.098333873
-1.5958937 -5.0429573 -1.0829942 1.047883
-1.2682277 -5.1076493 -1.1387188 0.12602764
-1.1408036 -5.1664801 -1.081864 0.13129508
-0.93153548 -5.1457767 -1.160284 0.057049647
-0.67703688 -5.1707582 -1.0776073 0.25022185
-0.46535406 -5.1401896 -1.0828571 0.10914323
-0.26199833 -5.1628237 -1.1111099 0.075861305
-0.068012036 -5.1501226 -1.1628975 0.090814941
0.099623322 -5.1228809 -1.1530592 0.076500386
0.29604271 -5.1419115 -1.1251721 0.32883909
0.55566776 -5.1495857 -1.1465869 0.90829587
0.76512873 -5.1355991 -1.1075699 0.54780877
0.90217263 -5.1251144 -1.1664054 1.0714341
1.0607939 -5.1394501 -1.0918729 0.26621819
1.3032432 -5.1479998 -1.1082375 0.55886066
1.494401 -5.1619911 -1.1788769 0.76580632
1.6925083 -5.1824675 -1.1489496 0.85242593
1.9305604 -5.1832886 -1.1645572 0.19448204
2.1205225 -5.1252627 -1.1757603 0.059342999
2.3307145 -5.1557341 -1.143991 0.21869907
2.5450351 -5.1497469 -1.0955322 0.17140315
2.7556264 -5.1635628 -1.1390344 0.34853193
2.8934793 -5.1296177 -1.1368411 0.051978558
3.0726476 -5.1137114 -1.1721238 0.094816804
3.2961729 -5.1781301 -1.1202552 0.95829344
3.4786553 -5.1688671 -1.1084251 0.55051327
3.6778059 -5.1747684 -1.0969784 0.30926251
3.9349418 -5.1445608 -1.133791 0.98930067
4.1219339 -5.1599922 -1.1099372 1.0426584
4.3494577 -5.1823168 -1.0470819 0.98144639
4.5501013 -5.1389351 -1.144009 1.0502446
4.6714191 -5.1530151 -1.166575 1.0091774
4.9380994 -5.1789942 -1.0413373 1.0469612
5.0846186 -5.1276369 -1.1750469 1.0485586
5.2236862 -5.1380196 -1.1317445 1.0484678
5.5190983 -5.1682653 -1.1069241 0.54058892
5.7397909 -5.1313882 -1.18134 1.0425366
5.9501467 -5.1383686 -1.1329612 0.88209832
6.1438208 -5.1487513 -1.0813881 1.0479596
6.3593054 -5.1604404 -1.0497267 1.0477096
6.5316157 -5.1368489 -1.1144176 1.0464321
6.7022266 -5.0990982 -1.1945435 1.0474973
6.92836 -5.1169415 -1.1492946 1.0472498
7.1659975 -5.1368361 -1.0923671 1.0469998
7.2171178 -5.1535826 -1.0631735 1.0468264
7.416975 -5.1575894 -1.0317979 1.0467501
7.6635003 -5.1204596 -1.1445662 1.0457668
7.85427 -5.0829687 -1.1965339 1.0464988
8.1596546 -5.1076355 -1.1429824 1.04625
8.2208691 -5.1239166 -1.1117699 1.0461278
8.4810295 -5.1328363 -1.0763119 1.0459995
8.7335777 -5.0854049 -1.1751187 1.0441591
8.8308086 -5.161778 -1.0052482 1.0457448
9.0970268 -5.1069736 -1.1092478 1.0231073
9.3143024 -5.1437969 -1.0741234 1.0441829
9.4078093 -5.0667591 -1.1948611 1.0454841
9.6970959 -5.1141415 -1.0721068 0.98837304
9.8236828 -5.0927725 -1.1292872 1.0452499
10.124129 -5.1329565 -1.0423191 0.58512658
10.274721 -5.1216807 -1.0486649 1.0449986
10.43586 -5.141921 -1.0124825 0.55265242
10.718781 -5.1031208 -1.1127641 0.60678458
10.928625 -5.117218 -1.0930774 0.50438118
11.078375 -5.1123419 -1.1195738 0.094983876
11.319818 -5.1112828 -1.0879546 0.39305687
11.491544 -5.1267529 -1.0696183 0.52354968
11.620142 -5.0420513 -1.1966436 1.0444925
11.858697 -5.1243682 -1.0377668 0.46383187
12.086561 -5.1126308 -1.075001 0.16896605
12.241486 -5.0737019 -1.1060491 1.0442412
12.445938 -5.1023564 -1.0609748 0.8876586
12.685683 -5.0999746 -1.0945883 0.13687605
12.942479 -5.1118135 -1.0049806 1.0401268
13.060513 -5.053421 -1.1292092 0.9799782
13.257198 -5.0823269 -1.1182331 0.16785964
13.499692 -5.0779099 -1.1090994 0.060313001
13.69163 -5.0447979 -1.1366305 0.91836846
13.869113 -5.0699649 -1.0814549 0.67210948
14.11411 -5.0774932 -1.1290498 0.30168897
14.236038 -5.0233679 -1.0961442 0.57966125
14.49765 -5.0633593 -1.0819651 0.60995811
14.615299 -5.0238233 -1.1526519 1.0754402
14.913083 -5.0370207 -1.1205635 0.31123376
15.051381 -5.0214233 -1.0944076 1.1018932
15.330289 -5.0731311 -1.0882759 0.57469922
15.463569 -5.0515566 -1.0833488 1.0668149
15.674302 -5.0708227 -1.0840678 0.57512516
15.892494 -5.0307107 -1.0210404 1.1075321
16.035625 -5.013927 -1.0041256 1.1077517
16.241009 -5.0140181 -1.0047146 1.1077497
16.55093 -5.0595846 -1.0518425 0.31031299
16.653175 -5.0136671 -1.0134976 1.1077358
16.839756 -5.0213823 -1.0103564 1.1074705
17.041294 -5.0180278 -1.0155764 1.1077069
17.242859 -5.0314884 -1.0184679 1.1038015
17.559521 -5.0651283 -1.0385201 0.30859661
17.743778 -5.058754 -1.0607071 1.0820534
17.906633 -5.0146322 -1.0678122 1.1058719
18.062061 -5.0366659 -1.0112169 0.97849125
18.212435 -5.0275359 -1.0888739 0.042499542
-1.8061545 -4.8953876 -1.1145506 0.9722923
-1.621495 -4.8964272 -1.1404839 0.55949855
-1.5971727 -4.9493666 -1.1034513 1.0456173
9.9021463 -4.9935136 -1.1974703 1.1184998
10.120165 -4.9889383 -1.1977445 1.1181347
10.320405 -4.9849586 -1.1903237 1.1178834
10.457923 -4.9780693 -1.1886384 1.1177582
10.67811 -4.9785271 -1.176666 1.1177835
10.909384 -4.973918 -1.168184 1.1176327
11.059645 -4.9733133 -1.1645775 1.1175342
11.24817 -4.976265 -1.1573465 1.1175165
11.503273 -4.9793653 -1.1454492 1.1172589
11.686322 -4.9676876 -1.1436162 1.1173166
11.914114 -4.9702578 -1.1360669 1.1173209
12.09803 -4.9779596 -1.1302427 1.1176001
12.263035 -4.9799519 -1.1592329 1.1198839
12.45937 -4.9843531 -1.1149123 1.1176952
12.678724 -4.9920712 -1.1015677 1.1177814
12.845272 -4.9891939 -1.1331222 1.1114378
13.091799 -4.9552755 -1.1014415 1.1127344
13.270411 -4.9724951 -1.15321 1.088613
13.440191 -4.9787436 -1.1327813 1.119917
13.69066 -4.9623966 -1.048749 1.1025641
13.878372 -4.9549756 -1.1259785 1.1197758
14.040411 -4.9549761 -1.1154531 1.1181318
14.258821 -4.9121723 -1.0731413 1.1158198
14.485863 -4.9234924 -1.0624132 1.1002126
14.65964 -4.9334345 -1.0545303 1.1159723
14.871945 -4.953104 -1.0707626 1.0205827
15.091918 -4.9460087 -1.1554456 1.0942248
15.29179 -4.9752092 -1.0952237 1.0488052
15.494969 -4.9745378 -1.0934153 1.1108515
15.744732 -4.9602089 -1.0685134 0.85833097
15.883547 -4.9653792 -1.0828717 1.1081564
16.053493 -4.9151802 -1.0853384 0.10160469
16.239178 -4.8767385 -1.1045946 0.10183322
16.448315 -4.922327 -1.0913265 0.10184012
16.681005 -4.8926935 -1.0526654 0.10172512
16.860954 -4.9642487 -1.0241005 0.47893241
17.032625 -4.9692097 -1.0102508 0.5732584
17.241131 -4.9309845 -1.0805329 0.10211651
17.451735 -4.9343834 -1.0693203 0.1022951
17.731632 -4.8761406 -1.1204476 0.10654518
17.859753 -4.8228416 -1.1649358 0.10093512
18.119106 -4.8924522 -1.087981 0.080404311
18.216629 -4.9680901 -1.0085468 0.044241726
-1.8159109 -4.632247 -1.0220184 1.0326
-1.6135144 -4.759304 -1.1389964 1.0518262
-1.5978487 -4.7463474 -1.0594645 1.0463992
17.24048 -4.7659092 -1.1214405 0.10205936
17.781075 -4.7995601 -1.0031136 0.10183048
17.986486 -4.7497506 -1.0676576 0.051357232
18.09959 -4.7562304 -1.1061759 0.31746107
18.20866 -4.6771326 -1.0412006 0.09805683
-1.8125348 -4.5286102 -1.1411339 1.0420077
-1.6349398 -4.474309 -1.080024 0.19560441
-1.5970358 -4.4599147 -1.1690055 1.0424995
17.994209 -4.5145121 -1.159577 0.057215936
18.19241 -4.563302 -1.1274763 0.49019092
18.213665 -4.4237137 -1.0477542 0.54309523
-1.819519 -4.3545856 -1.128252 1.0423167
-1.6370363 -4.3634434 -1.0790722 0.075195327
17.982182 -4.3382263 -1.1483351 0.061556887
18.144501 -4.3839316 -1.0375667 0.10143101
18.217396 -4.3876467 -1.0691525 0.43384558
-1.8357345 -4.1458874 -1.1469827 0.052679375
-1.6340697 -4.0962973 -1.0928674 0.07532452
-1.5982337 -4.1693153 -1.1082611 0.04805851
17.991714 -4.0597334 -1.1057281 0.058284685
18.184902 -4.014122 -1.1429374 0.084959395
18.214918 -4.119669 -1.0285614 0.11287472
-1.8506751 -3.9512501 -1.1023525 0.072335765
-1.6318032 -3.8550768 -1.1751281 0.077393204
17.987419 -3.8582265 -1.1108731 0.053797223
18.180824 -3.9396348 -1.040163 0.22772577
18.214268 -3.8842039 -1.109504 0.041250229
-1.8957272 -3.7182794 -1.0731213 0.081173763
-1.6279235 -3.737366 -1.0846493 0.10012535
17.98395 -3.7246838 -1.1162848 0.050463982
18.16993 -3.72615 -1.0788469 0.5409227
18.213699 -3.7414141 -1.1664248 0.072110653
-1.9043729 -3.502373 -1.0744865 0.057812423
-1.6311247 -3.5515072 -1.1218107 0.078665309
17.989666 -3.4927304 -1.1195443 0.54375499
18.010839 -3.4682608 -1.123173 1.0350502
18.208101 -3.5293412 -1.1363183 0.10230446
-1.8761206 -3.2843189 -1.1519587 0.83393711
-1.6278338 -3.2638218 -1.0768313 0.4087818
17.993938 -3.3495097 -1.1349151 0.55935735
18.009808 -3.3552198 -1.0451261 0.97079122
-1.8679991 -3.0818489 -1.1148859 1.0909376
-1.6315579 -3.0952942 -1.1189655 0.76644474
17.985638 -3.0585008 -1.1243007 0.32353029
18.014658 -3.1198444 -1.1073594 1.0480833
-1.8533318 -2.8821096 -1.1141489 1.081531
-1.6245291 -2.9877439 -1.0859287 0.43552876
17.978836 -2.9574361 -1.1098554 0.13133737
18.004911 -2.9072733 -1.1084676 1.0461249
-1.8481929 -2.6967096 -1.1211647 0.59311867
-1.6494582 -2.7113128 -1.0532706 1.0563315
17.981022 -2.7150178 -1.1483889 0.18077849
18.012768 -2.7841017 -1.0507712 1.0628748
-1.8628489 -2.4126823 -1.0858511 1.0830002
-1.644628 -2.5034261 -1.1449333 1.0462382
17.983997 -2.4535265 -1.089422 0.25356251
18.009398 -2.4402494 -1.1297704 1.0830312
-1.6607707 -2.2666461 -1.1786197 1.0547687
17.984959 -2.2780135 -1.0938491 0.5366329
18.035538 -2.2467921 -1.1643932 0.6009379
18.21767 -2.2616711 -1.1796373 0.038999557
-1.8427193 -2.0819883 -1.1400919 1.0873747
-1.6498358 -2.1039629 -1.1472957 1.0661072
0.68266702 -2.0453162 -1.1825812 1.0700002
17.989481 -2.167408 -1.109776 1.1158301
18.004755 -2.0639873 -1.077631 1.059
18.21402 -2.0105691 -1.1672952 0.038749695
-1.8441918 -1.8513944 -1.1459098 0.56635535
-1.669804 -1.9543202 -1.1451402 1.0343243
-1.5908045 -1.9417875 -1.149989 1.0847502
-1.3706726 -1.8813618 -1.1698811 1.0847502
-1.1029193 -1.849854 -1.1766486 1.0847502
-0.93973869 -1.9407941 -1.1759146 1.0845003
0.039597258 -1.8575258 -1.086026 1.0692501
0.74603194 -1.8629251 -1.0960273 1.0799999
0.89981103 -1.8130188 -1.102038 1.0697498
1.0801141 -1.996677 -1.170138 1.0797501
1.5625567 -1.8222698 -1.1179384 1.0792503
1.8401264 -1.9553763 -1.1879903 1.0789995
2.529326 -1.902729 -1.1959713 1.0782499
17.970974 -1.9301162 -1.0658619 1.0942829
18.008554 -1.9337853 -1.1982899 1.05725
18.218773 -1.8359357 -1.052098 0.038983941
-1.8655654 -1.7320318 -1.1451473 0.30777788
-1.6849729 -1.7145085 -1.1310989 0.9917199
-1.239943 -1.7879871 -1.1445804 1.0847502
0.057614259 -1.7856351 -1.0565478 1.0692501
0.36419138 -1.6878246 -1.0133359 1.0748749
1.2740464 -1.6846156 -1.044772 1.0795002
2.0873423 -1.6294425 -1.0575494 1.0787497
2.3265834 -1.7650285 -1.1265284 1.0784998
2.5732913 -1.6227113 -1.0703702 1.0780001
17.978004 -1.7390254 -1.1075718 0.58226359
18.147987 -1.7406878 -1.0848203 0.29615605
18.208378 -1.7098334 -1.0436542 0.038874626
-1.8563507 -1.4506245 -1.1939571 0.057476744
-1.7030771 -1.5358427 -1.1407604 1.0174193
2.9190757 -1.5091983 -1.0239187 1.0775003
3.2052531 -1.4178183 -1.1723013 1.0827503
3.5884645 -1.4160039 -1.1169981 1.0667496
3.709723 -1.4549541 -1.1483296 1.0830002
4.1003551 -1.4569354 -1.1495361 1.0749376
4.348062 -1.5282876 -1.1684026 1.0822496
4.58992 -1.459951 -1.1613684 1.0822496
4.6194925 -1.4424798 -1.1587378 1.0749998
5.0390196 -1.4614476 -1.1864027 1.0682497
5.2446246 -1.4259064 -1.1768157 1.0684996
5.6452832 -1.4032531 -1.1795181 1.0690002
17.988171 -1.5326653 -1.1156822 0.89176023
18.194769 -1.5557377 -1.04284 0.047067747
18.201311 -1.5284536 -1.0492013 0.039937258
-1.8524812 -1.2491244 -1.1444595 0.048346095
-1.6900215 -1.2549249 -1.0445836 1.0610781
-1.497517 -1.21674 -1.1967428 0.04302597
2.0033939 -1.2701706 -1.0735118 1.0837498
2.3280849 -1.3089885 -1.1002958 1.0834999
2.6470687 -1.3419882 -1.1231751 1.08325
2.9225121 -1.3847816 -1.1507114 1.0830002
3.8530555 -1.2408769 -1.0504106 1.0670004
4.0113506 -1.2819927 -1.0614698 1.0827503
4.3444753 -1.3137186 -1.0945407 1.0749998
4.6656427 -1.2495986 -1.0882472 1.0822496
4.879777 -1.3031945 -1.1151676 1.0749998
5.0189519 -1.2117389 -1.1700922 1.0839996
5.2483878 -1.348841 -1.1420109 1.0684996
5.4211602 -1.253793 -1.1241089 1.0728128
5.760416 -1.2376908 -1.1608334 1.0657576
5.8917079 -1.2442393 -1.1894026 1.0844846
6.1187124 -1.2371348 -1.1374373 1.0766093
6.3731332 -1.2484863 -1.1658251 1.07725
6.5337496 -1.2503852 -1.1739886 1.0683713
6.8529468 -1.3165329 -1.176914 1.0784998
7.1633244 -1.2353092 -1.1503749 1.0722504
17.960213 -1.2841687 -1.1209736 0.04468739
18.187935 -1.2860943 -1.0324025 0.056096062
18.212233 -1.2108834 -1.0620407 0.039999962
-1.8701053 -1.0141616 -1.1334476 0.042288557
-1.7545424 -1.1141946 -1.0845919 0.79409784
-1.552526 -1.1762755 -1.1798923 0.04302597
4.2761073 -1.1158578 -1.097398 1.0853748
4.4787083 -1.1711397 -1.0907733 1.0834999
4.6565876 -1.1264352 -1.0711274 1.0763748
5.1001244 -1.0721719 -1.0564985 1.0766249
5.3543606 -1.1279298 -1.08792 1.076844
5.5168295 -1.1239249 -1.1107185 1.0677967
5.7289238 -1.0896722 -1.1142176 1.0748122
5.9422736 -1.1161686 -1.1206651 1.0673671
6.0502758 -1.0843701 -1.1198502 1.0700148
6.2555666 -1.1722934 -1.1664984 1.074625
6.4589739 -1.1078985 -1.1430838 1.0703125
6.6689005 -1.1018168 -1.1398498 1.0669687
6.9077501 -1.0537591 -1.097188 1.0765624
7.125186 -1.166288 -1.121583 1.0775003
7.278336 -1.1021841 -1.0860864 1.0747499
7.4468842 -1.0787694 -1.1659353 1.0735002
7.7748446 -1.0366616 -1.1420922 1.0679998
7.9017353 -1.1040306 -1.1872091 1.0733747
8.025322 -1.0823081 -1.166694 1.0684996
8.2296448 -1.0272428 -1.1503516 1.0690002
8.6875515 -1.066741 -1.1778395 1.0695
17.953426 -1.0621955 -1.1213281 0.2204134
18.170998 -1.132562 -1.0912759 0.11088321
18.205879 -1.1762972 -1.0541822 0.038000107
-1.8439643 -0.81934404 -1.1525712 0.04151053
-1.6782031 -0.89508408 -1.1583412 1.0113815
-1.5762399 -0.86437464 -1.1891503 0.041369185
-1.3700837 -0.86874235 -1.1367548 0.042893417
-1.1175144 -0.90045714 -1.1291521 0.83281726
-0.097300917 -0.81679964 -1.1835529 0.11550045
1.1160839 -0.80980408 -1.19508 0.11372042
1.2629043 -0.80252653 -1.1953002 0.11410904
3.8761432 -0.98708129 -1.0219764 1.0862503
4.1522698 -0.90536857 -1.0088044 1.0847502
4.4009156 -0.92802423 -1.027366 1.0845003
4.64642 -0.945979 -1.04265 1.0842495
4.8775396 -0.96458584 -1.0578047 1.0839996
5.0580983 -0.93477893 -1.0371749 1.0849063
5.3008327 -0.96411395 -1.0559711 1.084739
5.5420418 -0.92342162 -1.1296871 0.55830234
5.7432313 -0.90363002 -1.1152699 0.55111855
5.9100523 -0.83919239 -1.1650122 0.19484545
6.162837 -0.90274924 -1.1246347 0.59126258
6.3204117 -0.8830229 -1.0282204 1.0654378
6.5000968 -0.87293625 -1.0818719 1.0657812
6.7146425 -0.86516154 -1.1165409 0.54927665
6.8684626 -0.97124457 -1.1419951 1.0744998
7.0531878 -0.85300213 -1.1058221 1.073875
7.2899752 -0.85909259 -1.1088603 1.0701251
7.4086127 -0.90554786 -1.0766416 1.0672503
7.6166797 -0.97987938 -1.1394912 1.0784998
7.9695201 -0.84286243 -1.1702845 1.0862503
8.1465778 -0.93696386 -1.1305525 1.0669999
8.261364 -0.83937711 -1.13438 1.0638752
8.5172634 -0.88185513 -1.1799464 1.0627499
8.6040573 -0.83932465 -1.1695371 1.0628748
9.3814535 -0.84637094 -1.1530452 1.0647497
14.456624 -0.80701476 -1.1999822 1.0672503
15.08567 -0.83204955 -1.1787297 1.0625
15.346941 -0.82541913 -1.1911879 1.0631247
15.470125 -0.83437061 -1.1842251 1.0626874
16.56531 -0.88589239 -1.1950676 1.0670004
16.734722 -0.85131168 -1.1777251 1.0666246
16.857893 -0.82212669 -1.1615528 1.0663748
17.100002 -0.85906363 -1.1702555 1.0657189
17.283752 -0.83450186 -1.1569272 1.0573739
17.503696 -0.82438517 -1.1475546 1.0649956
17.667337 -0.82719266 -1.1465764 1.0647106
17.962223 -0.98467416 -1.1792932 0.12968446
18.161198 -0.95408094 -1.0382051 0.075489007
-1.8044854 -0.62945884 -1.1121788 0.044277035
-1.7016165 -0.71568382 -1.1821905 0.050659508
-1.5414863 -0.6356703 -1.1371503 0.044038437
-1.3306677 -0.72707856 -1.1007996 0.058475889
-1.0784883 -0.7236858 -1.1766061 0.82600355
-0.89711511 -0.6546998 -1.1522319 1.094625
-0.73779237 -0.64891803 -1.1741476 0.60090828
-0.47429454 -0.67025113 -1.1772184 0.60027826
-0.333597 -0.66093314 -1.1895323 0.048595738
-0.10860579 -0.71764159 -1.1842148 0.040483475
0.11951137 -0.66306615 -1.1734116 0.04086034
0.3362211 -0.66848296 -1.1771923 0.040594861
0.52596831 -0.63988817 -1.1703571 0.039979842
0.75020492 -0.63606387 -1.1555901 0.039535075
0.92527473 -0.65188074 -1.1870375 0.039741453
1.1076359 -0.61367446 -1.1834978 0.041544404
1.3130602 -0.62587738 -1.1800702 0.040545896
1.472664 -0.62111998 -1.1634208 0.039675478
1.6777754 -0.63280928 -1.1717169 0.04022523
1.847683 -0.65736365 -1.1873198 0.040842172
2.0413561 -0.6362747 -1.1813891 0.040036391
2.2602749 -0.65521884 -1.1784756 0.039022636
2.5340333 -0.65763938 -1.1604347 0.047382481
2.7396483 -0.62190199 -1.1777978 0.03953059
2.9434519 -0.66011024 -1.1864815 0.039738305
3.1263461 -0.63595355 -1.1846538 0.037430793
3.327122 -0.69215715 -1.1736609 0.039962038
3.5349555 -0.65356433 -1.1761004 0.048803266
3.6640513 -0.63106394 -1.1659067 0.051489741
3.9323018 -0.62476993 -1.170082 0.038249604
4.0734916 -0.64996004 -1.1718712 0.038541093
4.3111629 -0.63750374 -1.167111 0.043319352
4.5104113 -0.6262995 -1.1515212 0.064542957
4.7009802 -0.64593261 -1.1593759 0.038678586
4.9137611 -0.67447609 -1.1715796 0.050532028
5.1147842 -0.6535725 -1.1210854 0.05065142
5.2941928 -0.65516055 -1.1334727 0.04598505
5.50704 -0.67835379 -1.1455121 0.11372559
5.6965423 -0.61983204 -1.1562247 0.042420641
5.9237847 -0.68073636 -1.1221563 0.074941412
6.1578083 -0.66652238 -1.1816614 0.042381123
6.2214928 -0.6865921 -1.176196 0.17359215
6.5270801 -0.65128207 -1.1606812 0.17051139
6.7600241 -0.67544878 -1.1554667 0.3308832
6.9152927 -0.71524596 -1.117521 0.12888291
7.0419083 -0.703722 -1.1842674 0.13875248
7.2831116 -0.65820765 -1.1602274 0.17107525
7.5128584 -0.71575284 -1.1287166 0.93235373
7.7293711 -0.66664732 -1.1173435 0.93484747
7.8364286 -0.65969443 -1.1540421 1.0744998
8.0885096 -0.6482206 -1.0838416 1.0857496
8.373848 -0.70988053 -1.1166993 0.93915141
8.5543747 -0.7200048 -1.1649036 0.99848616
8.6552181 -0.72836369 -1.1660953 1.0443275
8.932435 -0.67408454 -1.1398576 0.80584407
9.1004009 -0.73766458 -1.1781547 0.93554598
9.3072691 -0.66435987 -1.1908731 0.5659399
10.28229 -0.613599 -1.1967851 1.0549998
10.460442 -0.60963672 -1.1983829 1.0558748
10.984241 -0.64608496 -1.1801603 1.0557499
11.0206 -0.65442371 -1.1992326 1.0559998
11.452954 -0.62141186 -1.1881917 1.0594997
12.124814 -0.65288258 -1.1896451 1.058875
12.202485 -0.61441648 -1.1728752 1.0597501
12.633909 -0.62644696 -1.1720579 1.0785627
13.27612 -0.6393882 -1.16468 1.0595251
13.485113 -0.65856028 -1.1579955 1.0628123
13.639527 -0.68360168 -1.1631888 1.0630622
13.948426 -0.63051009 -1.1628816 1.0901092
14.038452 -0.6937995 -1.1901379 1.0943022
14.240486 -0.73171085 -1.1769013 1.0702496
14.54735 -0.77008504 -1.1822969 1.066875
14.747824 -0.70724499 -1.1522675 1.066
14.845398 -0.65209734 -1.1275821 1.065815
15.048954 -0.69322658 -1.1456847 1.0634021
15.305847 -0.75218654 -1.1637349 1.0623126
15.461647 -0.63829994 -1.1090854 1.0633436
15.767925 -0.62289464 -1.1528602 1.0925585
15.955187 -0.67717624 -1.1347133 1.0934683
16.080807 -0.73994792 -1.1664364 1.0874376
16.28273 -0.73197889 -1.1421256 1.0685625
16.545876 -0.73614097 -1.1537702 1.0685627
16.71771 -0.67853904 -1.1371876 1.0660779
16.885338 -0.64464462 -1.0892992 1.066734
17.168394 -0.77581269 -1.1358931 1.0657501
17.379835 -0.68990707 -1.0971111 1.0334743
17.596281 -0.66187179 -1.1950519 1.0964175
17.733772 -0.6750204 -1.0942068 0.5670557
17.991997 -0.69527709 -1.1490738 0.094655946
18.115955 -0.77702045 -1.0604479 0.10902599
-1.8116162 -0.56720853 -1.1195778 0.29461133
-1.7032236 -0.45830128 -1.1495683 1.0763526
-1.5647668 -0.51462334 -1.1809778 0.082886182
-1.3071446 -0.45912695 -1.1591532 1.017706
-1.0968541 -0.51529258 -1.1223273 0.051820371
-0.83404428 -0.47765914 -1.1212018 0.5736286
-0.68836415 -0.44975191 -1.1253496 0.3112826
-0.52790248 -0.50629747 -1.1599039 0.11415461
-0.24535599 -0.52842724 -1.169266 0.047153611
-0.16256085 -0.55503792 -1.1814891 0.047240209
0.12674838 -0.56194109 -1.1815758 0.059730325
0.28235179 -0.45323405 -1.132298 0.045036294
0.54595828 -0.49513078 -1.1465799 0.044112913
0.63975221 -0.54177684 -1.1634089 0.041011538
0.84028578 -0.55762136 -1.1757728 0.043169804
1.1442568 -0.46692365 -1.1345598 0.041709237
1.2746563 -0.50779998 -1.1362076 0.042139821
1.4848751 -0.54375941 -1.1461972 0.039109193
1.7366951 -0.5628742 -1.1532075 0.036963113
1.8544441 -0.52639079 -1.129437 0.036760878
2.0616438 -0.55789435 -1.1407933 0.039666116
2.3421929 -0.53103524 -1.1370239 0.038546294
2.5191693 -0.53398085 -1.1391938 0.039717112
2.7431703 -0.53947091 -1.1456714 0.038456194
2.8971143 -0.47151187 -1.0928206 0.039409846
3.1051567 -0.44218397 -1.0771468 0.042126153
3.2992361 -0.50523877 -1.1151205 0.037169285
3.562036 -0.49207598 -1.1004715 0.0568971
3.7476342 -0.46757978 -1.1078458 0.059466988
3.9188704 -0.48061949 -1.1237682 0.037782986
4.1156549 -0.55954504 -1.1588874 0.042838536
4.3512154 -0.47960865 -1.0987906 0.039890274
4.4986134 -0.43727529 -1.0949005 0.037974805
4.6527658 -0.49397683 -1.1266464 0.038379766
4.8796005 -0.53406835 -1.1100588 0.074430808
5.0965319 -0.51527071 -1.0844057 0.045023669
5.3115888 -0.44632736 -1.0850341 0.10676347
5.4949689 -0.5386157 -1.1704147 0.092455477
5.6843648 -0.5170269 -1.1033814 0.068276629
5.9280901 -0.51528913 -1.0760813 0.11549906
6.0864382 -0.46872488 -1.0279189 0.1166564
6.3075943 -0.47520453 -1.1256812 0.11039901
6.5488815 -0.53088158 -1.1788862 0.094110608
6.6992307 -0.50991035 -1.1702101 0.092434362
6.9037004 -0.50858676 -1.1787856 0.10667942
7.0540643 -0.53988135 -1.1442814 0.10436392
7.2937417 -0.56092727 -1.1137652 0.11487551
7.4649973 -0.50998986 -1.0963464 0.11415993
7.6789718 -0.50899553 -1.157322 0.12038372
7.9201336 -0.51941407 -1.1806927 0.30144492
8.1441593 -0.46076351 -1.150221 0.34866482
8.3484402 -0.42039254 -1.1678948 1.0522304
8.4971352 -0.49654213 -1.1933312 0.33972266
8.6640358 -0.56913459 -1.1454382 1.05457
8.9154997 -0.49091876 -1.1761403 0.33249077
9.1106329 -0.46409661 -1.096226 0.52015978
9.2710791 -0.49676555 -1.0827173 1.047644
9.5154829 -0.49245003 -1.0667508 0.54975986
9.7067585 -0.49046141 -1.1241236 1.0706249
9.942853 -0.4963671 -1.1721945 1.0765624
10.034431 -0.44709617 -1.1500729 1.087539
10.370879 -0.48579526 -1.1290936 1.054625
10.555088 -0.45656383 -1.1288428 1.05475
10.716966 -0.48690021 -1.1434546 1.0565313
10.984085 -0.45371044 -1.1488879 1.0961249
11.129205 -0.50646156 -1.1692694 1.09091
11.263712 -0.46846521 -1.1553891 1.0905349
11.505405 -0.46683961 -1.1503994 1.0850703
11.872286 -0.51180047 -1.1685823 1.0948749
12.064677 -0.51385677 -1.1737783 1.0940624
12.311669 -0.47917545 -1.1360599 1.0756357
12.450273 -0.46501383 -1.113959 1.0949686
12.678061 -0.5616346 -1.1675742 1.0941195
12.821918 -0.56124032 -1.1808828 1.0939801
13.08226 -0.4981162 -1.159186 1.0840626
13.383749 -0.56688952 -1.1352786 1.0592499
13.519944 -0.42322683 -1.132211 1.0771146
13.676929 -0.42473871 -1.0698864 1.0939833
13.844749 -0.55670345 -1.1254623 1.0942321
14.031211 -0.55046618 -1.1729209 1.0920713
14.272414 -0.49002871 -1.1779146 1.0836407
14.536533 -0.4982031 -1.152179 1.0854373
14.668964 -0.53443837 -1.1330056 1.0861249
14.919542 -0.45609248 -1.1372803 1.0854686
15.150573 -0.42557305 -1.1252493 1.0895419
15.364389 -0.41033006 -1.0797236 1.0920802
15.55912 -0.44692796 -1.0393019 1.0931797
15.645238 -0.50367182 -1.0669343 1.0931847
15.897976 -0.43296689 -1.1752735 1.0919803
16.07843 -0.45699093 -1.1803513 1.0916562
16.326855 -0.44655126 -1.1608896 1.0890195
16.44808 -0.51121247 -1.1168659 1.0918084
16.698189 -0.475124 -1.1674478 1.0917053
16.912739 -0.47435915 -1.0914179 1.0910156
17.139233 -0.47528893 -1.1452184 1.0895833
17.313797 -0.51514339 -1.1625748 1.0572197
17.476259 -0.45956618 -1.0952768 1.0943651
17.68153 -0.50509357 -1.0584898 1.0944364
17.908884 -0.4232862 -1.0251344 1.0930591
18.116608 -0.55002391 -1.085536 0.10804775
-1.8055694 -0.37047562 -1.1268051 1.0287638
-1.7581973 -0.27310747 -1.0608857 1.0504286
-1.5462009 -0.36883694 -1.1204143 0.052458741
-1.2627463 -0.3084504 -1.1132841 1.0145222
-1.0779731 -0.34326136 -1.1098728 0.5500176
-0.87000465 -0.25049412 -1.0749667 0.50286448
-0.66933203 -0.31971872 -1.1036258 0.29108119
-0.53612155 -0.31109908 -1.0748677 0.18052407
-0.27247459 -0.35438395 -1.0972657 0.062407926
-0.076038949 -0.28950202 -1.069685 0.047929287
0.1053016 -0.29241514 -1.0680174 0.047026392
0.3088612 -0.33534479 -1.0857427 0.045549043
0.51600754 -0.3536042 -1.0884497 0.045102417
0.71847498 -0.28619355 -1.061069 0.044458713
0.91777241 -0.34932148 -1.0686451 0.042309579
1.0652514 -0.33178812 -1.0498548 0.041282531
1.3075893 -0.25295308 -1.0494568 0.078955002
1.4641753 -0.28951991 -1.0482903 0.040071983
1.7296252 -0.26038852 -1.0113168 0.03918926
1.8566186 -0.27403006 -1.0228375 0.039641976
2.0948646 -0.26435897 -1.0213132 0.0395061
2.2367747 -0.25740564 -1.0213401 0.039551739
2.4733977 -0.2963782 -1.0377835 0.039632808
2.7175484 -0.24986285 -1.0255152 0.039786372
2.9308982 -0.25424877 -1.0234327 0.078673668
3.1287508 -0.29862881 -1.0415339 0.03762608
3.25649 -0.32097816 -1.0301163 0.041374404
3.5673461 -0.35668761 -1.0450404 0.036936246
3.7179146 -0.36135596 -1.038627 0.056667067
3.8610277 -0.35528445 -1.0590235 0.05408565
4.0953078 -0.27799672 -1.0242107 0.0540362
4.3242989 -0.34662437 -1.0585058 0.059719488
4.4923611 -0.3255285 -1.0485342 0.17851831
4.7077236 -0.29582608 -1.0147083 0.039912198
4.8804846 -0.29341155 -1.031167 0.068533778
5.0846338 -0.27576709 -1.0144852 0.037708417
5.3237772 -0.34882247 -1.0540204 0.10703063
5.482563 -0.3439846 -1.0359285 0.11150824
5.7252798 -0.28852335 -1.0698725 0.10609349
5.9039278 -0.25279462 -1.0747614 0.10570474
6.1452794 -0.30675304 -1.0584576 0.11073881
6.328197 -0.36531216 -1.0465524 0.11369719
6.4972544 -0.34869519 -1.1150675 0.1070316
6.6695852 -0.28257737 -1.0441408 0.10993436
6.880558 -0.3212356 -1.0892649 0.10769451
7.0655193 -0.33727667 -1.0903858 0.10846973
7.277421 -0.37774086 -1.0624667 0.11298572
7.4703603 -0.36110616 -1.0421331 0.11404297
7.6725407 -0.32714134 -1.0207191 0.11448174
7.8515491 -0.31225184 -1.1123903 0.10640062
8.0604105 -0.34797803 -1.1335039 0.10741968
8.2936268 -0.30629015 -1.1193335 0.33908838
8.5189877 -0.35023439 -1.1237245 0.16146953
8.7569885 -0.31780219 -1.1520276 0.66138625
8.9204693 -0.31180555 -1.1126895 0.57749176
9.1223049 -0.24312529 -1.1265001 1.0911506
9.36096 -0.29056579 -1.1040459 1.0680889
9.5286655 -0.33892238 -1.1297433 1.0427818
9.6632547 -0.30219555 -1.1303 1.0123913
9.871439 -0.30935702 -1.1310762 1.0779374
10.064156 -0.34077191 -1.1058905 1.071
10.272254 -0.33486813 -1.1005418 1.086625
10.497752 -0.28997159 -1.0628102 1.055172
10.742112 -0.29394186 -1.0724876 1.091078
10.870142 -0.27829528 -1.0661323 1.0907655
11.009255 -0.39373919 -1.120854 1.0957499
11.323648 -0.32041574 -1.0746343 1.0763124
11.562637 -0.2727403 -1.0564827 1.084667
11.665503 -0.3362726 -1.0881627 1.0946109
11.866571 -0.34182745 -1.097033 1.0938123
12.168657 -0.23126364 -1.0002196 1.0632501
12.346665 -0.31132641 -1.0488918 1.0850937
12.462461 -0.25786409 -1.0370506 1.0846732
12.639019 -0.29056138 -1.0637565 1.0926484
12.850349 -0.32323033 -1.0507038 1.0862695
13.018515 -0.3409557 -1.1027863 1.0806249
13.496042 -0.27907154 -1.009945 1.0937182
13.617637 -0.37504584 -1.049989 1.0939019
13.811614 -0.37654614 -1.0970504 1.0913641
14.090208 -0.37231773 -1.0184221 1.0619998
14.235382 -0.27378616 -1.0999978 1.0909843
14.473246 -0.28154424 -1.0524187 1.0838125
14.722824 -0.30629981 -1.0797985 1.0770625
14.967907 -0.24166015 -1.0235934 1.0907571
15.103539 -0.24990413 -1.0082607 1.0918725
15.319715 -0.32934564 -1.0114651 1.0927174
15.471411 -0.3631779 -1.0744472 1.0923805
15.652468 -0.32275224 -1.111127 1.0918875
15.851181 -0.35375118 -1.137953 1.0932305
16.108707 -0.349967 -1.1251068 1.0913848
16.319798 -0.28798789 -1.0789871 1.0897343
16.482315 -0.34668025 -1.1210337 1.0233561
16.745485 -0.28304455 -1.0606662 1.0807576
16.91387 -0.35817641 -1.0948393 1.0746197
17.053627 -0.34760725 -1.1042231 0.96883976
17.257593 -0.26353225 -1.1181178 0.53695595
17.489193 -0.28907254 -1.008436 1.0909982
17.693607 -0.33801377 -1.0529038 1.0936246
17.858376 -0.33979118 -1.0094672 1.0876848
18.086147 -0.29250613 -1.0854934 0.10173109
-1.8174582 -0.065678246 -1.092499 1.0417831
-1.7098639 -0.17293744 -1.029898 0.56703711
-1.5368936 -0.11099271 -1.0257616 0.30037415
-1.3186784 -0.15330714 -1.0406557 1.0138046
-1.1659446 -0.096645296 -1.0237433 0.80193448
-0.88964868 -0.15583211 -1.0361803 1.0187355
-0.76841819 -0.1311639 -1.0254583 0.55036581
-0.40939042 -0.19937958 -1.1145968 1.04275
-0.25331622 -0.12088899 -1.0191424 0.30544806
-0.11045235 -0.15573713 -1.0163296 0.048763223
0.062350363 -0.080772743 -1.0595646 1.0447891
0.2963486 -0.14762399 -1.0077727 0.11306605
0.43625891 -0.19467868 -1.0233648 0.046813726
0.86545181 -0.18257555 -1.0176322 0.57234448
1.1587595 -0.16951078 -1.0094026 0.043382406
2.3972528 -0.1509394 -1.010486 0.040415764
2.6330609 -0.19345777 -1.0016061 0.039722443
2.942565 -0.18175676 -1.0087123 0.038532257
4.2496042 -0.16217338 -1.1340443 1.1077499
4.5042667 -0.08502239 -1.0473274 1.0764999
4.7287025 -0.10283424 -1.0980821 1.10725
4.8523808 -0.07705652 -1.0309087 1.076875
5.0811949 -0.12157122 -1.0421189 0.60414922
5.2920995 -0.12214067 -1.0923322 1.1065
5.4700136 -0.1496543 -1.0240436 0.10712242
5.7199745 -0.14458618 -1.0185015 0.21482955
5.9114785 -0.1237851 -1.0404798 1.04475
6.1417451 -0.14530829 -1.0274885 0.136472
6.3323269 -0.17853963 -1.0324128 0.10688245
6.5295978 -0.12425607 -1.0181518 0.16197625
6.6543932 -0.13044101 -1.0393071 0.54316378
6.8947144 -0.10430434 -1.0133058 0.32891199
7.1047945 -0.13026643 -1.0145767 0.54804295
7.3270512 -0.066545233 -1.0093806 0.15954047
7.4490623 -0.17405069 -1.0587075 1.0482006
7.7168856 -0.080703676 -1.133106 0.91148722
7.8762422 -0.11448294 -1.0390358 0.21433558
8.0382261 -0.092748798 -1.1006567 0.64881057
8.2875586 -0.090158433 -1.1059525 0.60799623
8.5210705 -0.1168673 -1.1115676 0.7230559
8.7017899 -0.14062236 -1.0217123 1.0737499
8.9295139 -0.11014072 -1.1240509 0.91353673
9.0874443 -0.096178204 -1.1489687 1.0990645
9.2378178 -0.097237207 -1.1388628 1.0900469
9.5165806 -0.11258718 -1.0997732 1.0795703
9.6346579 -0.11307269 -1.1430111 1.0915937
9.8459625 -0.10875329 -1.1403267 1.0936875
10.064013 -0.11042798 -1.103622 1.0899687
10.252778 -0.15035452 -1.0210145 1.0961249
10.464743 -0.16985795 -1.0317116 1.0793749
10.632008 -0.17062026 -1.0078343 1.0542498
11.568848 -0.18820551 -1.0058814 1.0559998
11.68189 -0.17259681 -1.0138329 1.0834373
12.176194 -0.19661252 -1.0309154 1.09025
12.517027 -0.18570998 -1.0191466 1.0924997
12.625468 -0.15442623 -1.00722 1.0911248
13.310759 -0.14452256 -1.0422338 1.0654999
13.520949 -0.14116722 -1.0228684 1.0853126
13.722746 -0.089705586 -1.0137248 1.0921249
13.944086 -0.071788967 -1.0098337 1.0914998
14.311323 -0.088343538 -1.009248 1.0873749
14.492241 -0.1225334 -1.0469826 1.0556251
14.850019 -0.10886754 -1.0149777 1.0855782
15.137552 -0.16272147 -1.05887 1.0907383
15.277605 -0.15368199 -1.0546198 1.0902989
15.471281 -0.14203256 -1.030802 1.0918281
15.645424 -0.16682373 -1.0495769 1.0891172
15.88299 -0.15274897 -1.0695068 1.0712655
16.095016 -0.16120315 -1.0715748 1.0702246
16.318993 -0.15555954 -1.0570155 1.0703437
16.518208 -0.16109493 -1.0680709 0.62819964
16.676605 -0.1569203 -1.0664357 0.81822598
16.927475 -0.11296866 -1.0976818 0.14107767
17.055729 -0.08165665 -1.0514898 0.84663755
17.277641 -0.11381931 -1.0433427 0.8502059
17.518827 -0.13740173 -1.1103061 0.13754019
17.685467 -0.12293267 -1.1286597 0.34803727
17.950432 -0.15757799 -1.0237048 1.0762335
18.077614 -0.14064407 -1.0813953 0.10285382
-1.825887 0.048336245 -1.1217132 1.0395279
-1.7225338 0.10561258 -1.0838826 1.0399945
-1.4705708 0.094304085 -1.021265 1.0425158
-1.3754109 0.067152426 -1.1064622 1.039536
-0.06921909 0.043548942 -1.0020061 1.04325
0.12235951 0.021202635 -1.0207255 1.04325
0.20300536 0.049157992 -1.0075196 1.04325
4.918025 0.091911584 -1.0121394 1.10725
5.6098857 0.024698872 -1.0249854 1.10625
6.1084995 0.030908165 -1.010957 1.1055
6.2448931 0.028474325 -1.0109594 1.10525
7.5700841 0.15888022 -1.0524695 1.10625
7.7471266 0.16130604 -1.0524538 1.10625
7.9000149 0.15744248 -1.0583427 1.10625
8.0531979 0.07239753 -1.0998732 1.1064374
8.4584131 0.041827053 -1.1192516 1.1065
8.8858242 0.083930023 -1.0475899 1.075125
9.2674093 0.034949757 -1.1183355 1.1065
9.5699291 0.055396952 -1.0490848 1.07425
9.7070484 0.069584697 -1.1024694 1.1060001
9.9458752 0.13546692 -1.0544875 1.10425
15.278875 0.0075919805 -1.0215921 1.05275
15.675 0.0634804 -1.0205758 1.0514998
15.947909 0.021256965 -1.0392256 1.0510155
16.360779 0.10546465 -1.0137382 1.0500312
16.524015 0.044973984 -1.0243115 0.32614613
16.734955 0.090858802 -1.0190008 0.5509041
16.932873 0.074223436 -1.009824 0.63508612
17.11462 0.046114348 -1.030443 0.11038522
17.325901 0.074083149 -1.0153053 0.12367773
17.525932 0.055138752 -1.0296785 0.13451035
17.704334 0.089637645 -1.0140171 0.59959948
17.936739 0.043325022 -1.0302625 0.90956903
18.058449 0.051378153 -1.0327982 0.15641411
-1.8177769 0.24181628 -1.0416398 1.0417736
-1.7243407 0.28592965 -1.0328791 1.0576251
-1.4531267 0.26504341 -1.0093794 1.0399375
-1.3367398 0.29457289 -1.0092368 1.057501
-1.191054 0.33556354 -1.0356308 1.112
7.8813949 0.27508464 -1.000204 1.1059999
8.1449394 0.26837996 -1.0111411 1.1059999
8.2835522 0.26113313 -1.0350027 1.10675
9.1735258 0.26595163 -1.0050437 1.1059999
9.5579281 0.26831552 -1.0067025 1.1059999
11.399423 0.25921425 -1.0367855 1.10425
17.301563 0.29760259 -1.1516957 1.040375
17.515732 0.20457838 -1.0244573 1.04775
17.675997 0.219971 -1.025326 0.92347014
17.949234 0.22849199 -1.0064816 1.0671859
18.05942 0.2397465 -1.0329242 0.12900352
-1.6600306 0.42502433 -1.0097902 1.075875
17.581242 0.51472741 -1.0978998 1.0389999
18.024061 0.51348662 -1.0352466 1.0396562
17.954575 0.74109691 -1.0081855 1.0387499
18.01762 0.61801839 -1.0541492 1.0383749
-1.6432451 -5.6117582 -0.80393368 1.0375625
-1.5812491 -5.6110582 -0.81005961 1.0369997
-0.80123776 -5.6610994 -0.8227188 1.0307498
-0.6487993 -5.6368752 -0.81242073 1.0307498
-0.45847601 -5.6520586 -0.81730938 1.0299375
-0.2649118 -5.6435561 -0.80933535 1.0287833
-0.15516308 -5.6625977 -0.81951398 1.0287187
0.41602513 -5.6412001 -0.80139017 1.02775
4.5441155 -5.6042371 -0.80312657 1.1247501
4.7219057 -5.6044917 -0.80070978 1.12325
-1.8015754 -5.4218187 -0.84976202 1.0299888
-1.6111614 -5.4132481 -0.81288242 0.13012141
-1.5981438 -5.4145861 -0.80693269 0.077060103
-1.3142424 -5.4994583 -0.89418566 1.0336488
-1.1381011 -5.4541712 -0.96296251 1.0290666
-0.97748727 -5.4781532 -0.90086699 1.0299397
-0.69999015 -5.4281225 -0.9580605 1.0282862
-0.50296682 -5.5132794 -0.8376441 1.030266
-0.27416474 -5.4273539 -0.97142124 1.0316292
-0.10623742 -5.5010414 -0.82915288 1.0299397
0.10148633 -5.4525709 -0.92093623 1.0312924
0.25118464 -5.513483 -0.81196082 1.0283002
0.49425036 -5.4963493 -0.82538486 1.0281069
0.65107274 -5.4820108 -0.83443844 1.0289203
0.94838047 -5.4243374 -0.90485495 1.0326896
1.065187 -5.4541898 -0.81568825 1.029924
1.2481825 -5.4442739 -0.84398603 1.0277697
1.4459655 -5.4433575 -0.84927726 1.0268382
1.6761565 -5.4242268 -0.8838191 1.0337949
1.929774 -5.4425058 -0.80467457 1.0288646
2.0976572 -5.417511 -0.85976976 1.0752131
2.2981749 -5.4114504 -0.85095006 1.0273314
2.4503055 -5.4060283 -0.85772896 1.0275879
2.6314406 -5.4652061 -0.82786679 1.0280216
2.8798141 -5.4118757 -0.86881363 1.0348437
3.1375933 -5.4151092 -0.84709513 1.0404375
3.3241987 -5.4269223 -0.82313502 1.0406249
3.4730935 -5.4194012 -0.81570959 1.0374491
3.7642412 -5.4141073 -0.80329061 1.0392263
3.9330711 -5.412776 -0.8046118 1.0370699
4.0949998 -5.4050083 -0.80786538 1.0791967
4.2722712 -5.4376774 -0.81382608 1.0793692
4.7024536 -5.4071226 -0.81235266 1.0403435
4.9174061 -5.5010309 -0.82680953 1.08325
5.2779994 -5.5655341 -0.80204356 1.1189687
5.5005579 -5.4034719 -0.81293315 1.0518746
8.0116005 -5.4857774 -0.82296914 1.118875
8.5680742 -5.4385171 -0.84570998 1.1195002
8.7755384 -5.4378891 -0.85709846 1.11975
9.5792894 -5.429388 -0.85703462 1.1177502
-1.8093389 -5.3795109 -0.81957823 1.0322329
-1.6071296 -5.3419275 -0.96456224 0.073505163
-1.5931693 -5.3376851 -0.96254599 0.072850451
-1.2971919 -5.2784891 -0.94693232 0.063224569
-1.0729102 -5.3568687 -0.95488822 0.66012329
-0.93722761 -5.3618674 -0.92135543 0.80927491
-0.72801965 -5.3215523 -0.86630428 0.26263404
-0.46875912 -5.3834939 -0.93518388 0.55300069
-0.34782547 -5.2986221 -0.9705137 1.0043626
-0.021228995 -5.370985 -0.87977064 0.52534819
0.13906178 -5.3980017 -0.97386098 1.0293007
0.30250797 -5.3945894 -0.99596727 1.0279324
0.42545164 -5.3931074 -0.99605715 1.0285709
0.64171702 -5.3845544 -0.99720746 1.0299113
0.82468796 -5.3762555 -0.98162913 1.0340049
1.1335493 -5.3941088 -0.95118451 1.0376956
1.3070111 -5.3959875 -0.92377794 1.0369554
1.4971979 -5.3880148 -0.95090389 1.0371603
1.6612792 -5.3925076 -0.9354707 1.0364416
1.9498461 -5.3826685 -0.94150352 1.0351291
2.104383 -5.3882589 -0.92705959 1.0322833
2.2848294 -5.3711605 -0.95977986 1.0347974
2.5611391 -5.3881941 -0.89206982 1.0286728
2.7061067 -5.3065519 -0.9615432 1.0534205
2.893307 -5.3718147 -0.91765934 1.0750554
3.0444665 -5.3697634 -0.91545725 1.02651
3.312758 -5.3389091 -0.88642132 1.0325587
3.5449378 -5.3279247 -0.85182482 1.0551344
3.7493639 -5.2693691 -0.87715721 1.0474051
3.8627012 -5.2844152 -0.89624727 1.0469348
4.0888548 -5.2853956 -0.87592888 0.55005127
4.3618464 -5.2543812 -0.90837491 1.0493546
4.5118885 -5.2175765 -0.96420217 1.0501375
4.6915846 -5.2433615 -0.90852845 1.0496624
4.9597001 -5.2276239 -0.92937565 1.0490116
5.1088371 -5.2366142 -0.92257237 1.0171759
5.277051 -5.2379026 -0.91410369 0.98672938
5.4697204 -5.2548213 -0.86189336 1.0482823
5.7192492 -5.2601938 -0.88107866 0.54713851
