# .PCD v0.7 - Point Cloud Data file format
VERSION 0.7
FIELDS x y z intensity ring
SIZE 4 4 4 4 2
TYPE F F F F U
COUNT 1 1 1 1 1
WIDTH 1311
HEIGHT 1
VIEWPOINT 0 0 0 1 0 0 0
POINTS 1311
DATA ascii
20.472349 -7.9612608 1.1511818 3 9
3.0353799 -1.1810046 -0.63310426 3 2
57.612484 -22.427425 5.408885 28 10
3.8396831 -1.495486 -0.65264469 6 3
5.1067982 -1.9900305 -0.67296261 3 4
7.8255935 -3.0526447 -0.7348972 2 5
17.544031 -6.8507166 -0.9870562 4 6
2.1563003 -0.84591329 -0.62064809 7 0
20.300926 -7.9681106 0.38067189 3 8
2.4940977 -0.97943532 -0.61861545 7 1
20.230188 -7.9444208 1.1390399 3 9
3.0424106 -1.1953714 -0.63539398 3 2
57.645344 -22.660627 5.4189954 28 10
3.8291874 -1.5060414 -0.6517061 6 3
5.085393 -2.0011392 -0.67101264 3 4
7.8191357 -3.0800393 -0.73524588 2 5
17.521217 -6.9088569 -0.9870562 4 6
2.1588714 -0.85519344 -0.62220097 7 0
19.79105 -7.8438234 0.37159666 6 8
2.4872129 -0.98626387 -0.6177156 7 1
19.845886 -7.8735738 1.1189429 2 9
3.03478 -1.2040058 -0.63463074 3 2
57.614326 -22.869305 5.4231787 28 10
3.8278439 -1.5201894 -0.65233177 6 3
5.0636191 -2.0130117 -0.66906273 3 4
7.7972293 -3.1028943 -0.7342 2 5
17.442543 -6.944757 -0.9839161 4 6
19.722086 -7.8603349 -0.3705844 15 7
2.1485491 -0.8602283 -0.62013048 7 0
19.741274 -7.9039402 0.37117779 6 8
2.4946091 -0.9992879 -0.62041503 6 1
19.744125 -7.9130802 1.114756 8 9
3.0230579 -1.2121981 -0.63310426 3 2
57.552307 -23.089218 5.4252706 28 10
3.8259132 -1.5356807 -0.65295756 6 3
5.0676146 -2.0351131 -0.67052519 3 4
7.7715611 -3.1241477 -0.73280543 1 5
17.416971 -7.0086412 -0.9839161 4 6
40.565125 -16.331753 -0.76329851 12 7
2.1437418 -0.86699855 -0.61961281 7 0
2.4981549 -1.0113494 -0.62221462 6 1
51.081165 -20.679626 2.8881078 32 9
3.0151687 -1.2212691 -0.63234103 3 2
57.589542 -23.337866 5.4364266 28 10
3.8168676 -1.5475416 -0.65233177 6 3
5.0601211 -2.0536735 -0.67052519 3 4
7.7606087 -3.1512566 -0.73280543 1 5
17.385 -7.0663862 -0.98349744 4 6
40.044773 -16.284925 -0.75457227 11 7
2.1371257 -0.87301517 -0.61857754 8 0
2.487572 -1.016679 -0.62041503 7 1
51.101109 -20.895603 2.8933413 32 9
3.0090704 -1.2310432 -0.63195944 4 2
57.544605 -23.553844 5.4399128 28 10
3.8062303 -1.5579455 -0.65139318 6 3
5.0496097 -2.0689368 -0.67003769 3 4
7.7348146 -3.1722784 -0.73141098 1 5
17.313431 -7.1042857 -0.98077595 4 6
39.617737 -16.272657 -0.74759132 11 7
2.1377909 -0.88157028 -0.61961281 8 0
2.4750013 -1.0216384 -0.61816549 6 1
51.086926 -21.098248 2.8966908 32 9
3.0104153 -1.243263 -0.63310426 3 2
57.613491 -23.805407 5.4538579 29 10
3.7952924 -1.5689583 -0.65045458 6 3
5.0386882 -2.0850327 -0.66955024 3 4
7.7021623 -3.188765 -0.72931921 1 5
17.273764 -7.1585598 -0.97993857 4 6
39.191277 -16.257605 -0.7406103 11 7
2.1400509 -0.89125538 -0.62116575 7 0
2.4696212 -1.0295216 -0.6177156 6 1
51.068272 -21.299511 2.8998308 32 9
3.006057 -1.2537638 -0.63310426 3 2
57.574177 -24.024788 5.4580412 29 10
3.7916155 -1.5829577 -0.65076745 6 3
5.0130639 -2.0949543 -0.66711289 3 4
7.6946616 -3.2171688 -0.7296679 1 5
17.027582 -7.1262846 -0.9673779 4 6
38.765411 -16.239777 -0.73362941 10 7
2.1315842 -0.89647323 -0.61961281 8 0
38.28643 -16.109861 0.72504276 14 8
2.4714007 -1.0404043 -0.61906528 6 1
51.085648 -21.516409 2.9050646 32 9
2.9835694 -1.2566288 -0.62928808 3 2
57.559734 -24.255011 5.4646649 29 10
3.7915277 -1.5984855 -0.6517061 6 3
4.998404 -2.1093528 -0.66613787 3 4
7.6736412 -3.241473 -0.7287963 1 5
16.984205 -7.1779027 -0.96633118 6 6
38.340149 -16.219175 -0.72664839 10 7
2.1229503 -0.90201354 -0.61805987 7 0
37.928131 -16.115164 0.71931839 14 8
2.4677541 -1.0490247 -0.61906528 6 1
2.9861693 -1.2706304 -0.63081461 3 2
57.540108 -24.49547 5.4712892 29 10
3.7783735 -1.6092752 -0.65045458 6 3
5.005621 -2.1330135 -0.66808778 3 4
7.6512828 -3.2635486 -0.72775042 1 5
16.928392 -7.2275562 -0.96465647 6 6
37.849312 -16.167526 -0.71841085 10 7
2.1180134 -0.90865701 -0.61754227 7 0
37.527016 -16.107363 0.71282607 14 8
2.4638927 -1.0580624 -0.61906528 6 1
57.529263 -24.716522 3.2814648 36 9
2.9853237 -1.2825962 -0.63157779 3 2
57.516479 -24.722925 5.4772153 29 10
3.769104 -1.6208935 -0.64982885 6 3
4.9941225 -2.1497757 -0.66760033 3 4
7.6325245 -3.2870843 -0.72705317 1 5
16.92874 -7.2976727 -0.96612185 4 6
37.488686 -16.176212 -0.71268648 9 7
2.1219194 -0.91911596 -0.61961281 8 0
17.797693 -7.7128167 0.3385767 2 8
2.4494569 -1.0620055 -0.61636591 6 1
17.831953 -7.7350574 1.0186671 2 9
2.9700217 -1.2883215 -0.62928808 3 2
57.550461 -24.975891 5.4887199 29 10
3.7579873 -1.63168 -0.64889026 6 3
4.9829469 -2.1656129 -0.66711289 3 4
7.6027331 -3.3057625 -0.72531009 2 5
16.855547 -7.3359971 -0.96340036 6 6
17.78652 -7.7485681 -0.3386465 12 7
2.1133881 -0.92419517 -0.61805987 7 0
17.732189 -7.7580624 0.33784369 7 8
2.44752 -1.0713305 -0.61681581 6 1
17.749485 -7.76932 1.0154223 8 9
2.9726999 -1.3018311 -0.63081461 3 2
57.499428 -25.192623 5.4922061 29 10
3.7595055 -1.6479603 -0.65014172 6 3
4.9684658 -2.1789358 -0.66613787 3 4
7.5911474 -3.3322804 -0.72531009 2 5
16.76218 -7.3650627 -0.95952755 6 6
17.811983 -7.8300405 -0.33962384 1 7
2.1085443 -0.93041849 -0.61754227 7 0
17.667948 -7.7998619 0.33711067 2 8
2.4475191 -1.0810157 -0.6177156 5 1
17.685255 -7.8111911 1.0132242 2 9
2.9611835 -1.3085078 -0.62928808 3 2
57.561352 -25.447607 5.5061512 30 10
3.7504072 -1.65882 -0.64951599 6 3
4.946691 -2.1889734 -0.66418797 3 4
7.5800557 -3.3574355 -0.72531009 2 5
16.695671 -7.401989 -0.95712 8 6
36.2299 -16.070015 -0.69181341 8 7
2.1001527 -0.93504828 -0.61598933 7 0
17.506813 -7.7981973 0.33452773 2 8
2.4457009 -1.0899192 -0.61816549 6 1
17.46953 -7.7852426 1.0023383 2 9
2.9568284 -1.3183202 -0.62928808 3 2
3.7430816 -1.6704427 -0.64920312 6 3
4.9466553 -2.2086024 -0.66516292 3 4
7.561604 -3.3793018 -0.72461283 2 5
16.452253 -7.3594484 -0.9445594 5 6
35.902622 -16.067539 -0.68657762 8 7
2.0882297 -0.9380495 -0.61340117 7 0
17.28022 -7.7660384 0.33068818 2 8
2.4385185 -1.0964252 -0.6172657 6 1
17.297888 -7.7776079 0.99396455 2 9
2.9596021 -1.3313398 -0.63081461 3 2
57.507591 -25.881136 5.5173073 30 10
3.7393229 -1.6836572 -0.64951599 6 3
4.9429245 -2.226625 -0.66565043 3 4
7.5394588 -3.3994443 -0.72356695 2 5
16.021797 -7.230752 -0.92121762 7 6
35.448189 -16.00547 -0.67889863 8 7
2.1002781 -0.95361263 -0.61805987 8 0
17.106897 -7.7708359 0.32796565 2 8
2.4305491 -1.1045926 -0.61636591 6 1
17.091972 -7.7676539 0.9839161 2 9
2.9435108 -1.3383341 -0.62852484 3 2
57.468521 -26.141476 5.5235825 30 10
3.7271404 -1.6961994 -0.64857739 6 3
4.9267197 -2.2431588 -0.66467547 3 4
7.5257516 -3.4296825 -0.72356695 2 5
15.821831 -7.2170944 -0.91137844 7 6
35.11805 -16.026428 -0.6738025 8 7
2.0953484 -0.95976764 -0.61754227 7 0
16.921059 -7.7542105 0.32489401 2 8
2.4233298 -1.1110221 -0.61546606 6 1
16.924507 -7.7593651 0.9757517 1 9
2.9497633 -1.3529989 -0.63081461 3 2
57.381516 -26.331905 5.5235825 30 10
3.7250855 -1.7101982 -0.64920312 6 3
4.9228616 -2.2611411 -0.66516292 3 4
7.5179577 -3.4562845 -0.72391564 2 5
15.825027 -7.2820454 -0.91294849 10 6
34.777714 -16.010672 -0.66828758 8 7
2.092154 -0.96671087 -0.61754227 8 0
16.760929 -7.7481866 0.32231104 2 8
2.4231701 -1.1206883 -0.61636591 6 1
16.726931 -7.7395577 0.96591252 1 9
2.9310062 -1.3561778 -0.62776166 3 2
57.474689 -26.605743 5.5410137 31 10
3.7140162 -1.7200512 -0.64826447 6 3
4.8897247 -2.2666233 -0.66175061 3 4
7.4919949 -3.4744899 -0.72252107 2 5
15.780865 -7.3252335 -0.91179711 10 6
34.355282 -15.961769 -0.66123676 8 7
2.081763 -0.97074217 -0.61547172 7 0
16.570684 -7.7305579 0.31916961 2 8
2.4298384 -1.1340849 -0.61906528 6 1
16.587612 -7.7455063 0.95942283 1 9
2.9298122 -1.3680619 -0.62852484 3 2
3.7044106 -1.7313322 -0.6476388 6 3
4.8853793 -2.2853601 -0.66223812 3 4
7.4617763 -3.4921756 -0.72077799 2 5
15.811266 -7.4065385 -0.91504198 10 6
34.009663 -15.945769 -0.65565199 8 7
2.0853541 -0.98129308 -0.61754227 8 0
16.406097 -7.7236214 0.31651685 2 8
2.422339 -1.1408991 -0.61816549 6 1
16.412323 -7.733552 0.95083976 1 9
2.9321229 -1.3816279 -0.63005131 3 2
3.6983445 -1.7442526 -0.6476388 6 3
4.8773718 -2.3023994 -0.66223812 3 4
7.4363165 -3.5135429 -0.71955782 2 5
15.510852 -7.3319464 -0.89913177 7 6
33.686275 -15.937818 -0.65048611 8 7
2.0782535 -0.98727179 -0.61650699 8 0
16.23815 -7.7139134 0.31379429 2 8
2.4060211 -1.1434923 -0.61501622 6 1
16.233711 -7.7187514 0.94204724 1 9
2.9305849 -1.394052 -0.63081461 3 2
3.6865759 -1.7552483 -0.64670014 6 3
4.8693051 -2.3194106 -0.66223812 3 4
7.4258056 -3.5403366 -0.71973211 2 5
15.229715 -7.2674646 -0.88437307 6 6
33.352524 -15.92263 -0.64511073 8 7
2.078279 -0.99619043 -0.61754227 7 0
15.881605 -7.6160073 0.30744159 6 8
2.401814 -1.1523031 -0.61501622 7 1
15.880736 -7.6190004 0.92310166 5 9
2.9115415 -1.397477 -0.62776166 3 2
3.6875486 -1.7715275 -0.6479516 6 3
4.8571935 -2.3355215 -0.66175061 3 4
7.4026284 -3.561053 -0.71868622 1 5
15.202456 -7.3197155 -0.88426834 11 6
15.823248 -7.6220188 -0.30656895 11 7
2.0713105 -1.0017565 -0.61650699 8 0
15.847261 -7.6642776 0.30726707 10 8
2.3979795 -1.1602615 -0.61501622 7 1
15.846852 -7.670907 0.922683 10 9
2.9031119 -1.4059204 -0.62699842 3 2
3.6798763 -1.7828851 -0.6476388 6 3
4.8315606 -2.3429542 -0.6593132 3 4
7.3847761 -3.5842619 -0.71816331 2 5
14.971484 -7.2697616 -0.87223113 9 6
15.819927 -7.6885695 -0.30702275 1 7
2.0592957 -1.0043856 -0.61391884 8 0
15.687421 -7.6546564 0.3046841 8 8
2.3991687 -1.1711894 -0.61636591 8 1
15.694355 -7.6648231 0.91535598 15 9
2.9054899 -1.4189858 -0.62852484 3 2
15.874941 -7.7564492 1.5457941 3 10
3.6612074 -1.789647 -0.64544868 6 3
4.8340511 -2.3650396 -0.66077566 3 4
7.3668509 -3.607389 -0.71764034 2 5
14.806116 -7.2534409 -0.86406672 6 6
15.670901 -7.6838794 -0.3046492 6 7
2.0573337 -1.0127796 -0.61443645 8 0
15.646255 -7.7023034 0.30440488 8 8
2.3933175 -1.178696 -0.61591601 7 1
2.8932261 -1.4261534 -0.62699842 3 2
15.674862 -7.7299862 1.5290602 8 10
3.656395 -1.8039279 -0.64576155 6 3
4.8328867 -2.3854134 -0.66175061 3 4
7.3345656 -3.6233752 -0.71572298 2 5
14.645155 -7.2412672 -0.85621631 7 6
15.658323 -7.7456269 -0.30492842 4 7
2.055516 -1.0208143 -0.61495411 8 0
15.551657 -7.7266765 0.30311337 4 8
2.378511 -1.1822557 -0.61321658 7 1
15.595749 -7.7519779 0.91273916 5 9
2.9058089 -1.4449855 -0.63081461 3 2
15.629945 -7.7757792 1.5273172 3 10
3.6447706 -1.8140396 -0.64482296 6 3
31.164865 -15.517859 4.2746892 9 11
4.824111 -2.4031107 -0.66175061 3 4
7.3290052 -3.6525099 -0.71642017 2 5
14.46966 -7.2174602 -0.84742391 7 6
32.046089 -15.99156 -0.62514526 8 7
2.0588491 -1.0314442 -0.6170246 8 0
15.411526 -7.720881 0.30087951 2 8
2.3780615 -1.191883 -0.61411637 7 1
15.500748 -7.7723503 0.90876162 1 9
2.8831992 -1.446317 -0.62699842 3 2
31.041588 -15.578365 3.0385978 9 10
3.642266 -1.827888 -0.64544868 6 3
30.918093 -15.523145 4.2478786 9 11
4.7877331 -2.4048388 -0.65785074 3 4
7.3179908 -3.6789656 -0.71659446 1 5
14.374274 -7.2295065 -0.84323704 12 6
32.04723 -16.132095 -0.62626219 8 7
2.0502443 -1.0356529 -0.61547172 8 0
15.248841 -7.7060847 0.29822674 2 8
2.3773651 -1.2019352 -0.61501622 7 1
15.339427 -7.7552233 0.90080655 1 9
2.8783872 -1.4558702 -0.62699842 3 2
30.694649 -15.531889 3.0096622 9 10
3.6376257 -1.8414829 -0.64576155 6 3
30.608706 -15.501822 4.2127795 9 11
4.7863922 -2.4251251 -0.6588257 3 4
7.2986431 -3.6996098 -0.71589726 2 5
14.345389 -7.2778316 -0.84302771 13 6
30.927225 -15.697064 -0.60538912 15 7
2.0380101 -1.0384181 -0.61288351 9 0
15.080662 -7.6839814 0.29543436 2 8
2.3768384 -1.2115823 -0.61591601 6 1
15.141455 -7.7216144 0.89075804 1 9
2.8732877 -1.4659088 -0.62699842 3 2
30.388254 -15.510321 2.9849098 19 10
3.6244612 -1.8499435 -0.64451009 6 3
30.352047 -15.49852 4.1845064 18 11
4.7783241 -2.440984 -0.6588257 3 4
7.2785883 -3.7214363 -0.71520001 2 5
14.054453 -7.1889319 -0.82732689 8 6
30.662205 -15.697396 -0.60127032 7 7
2.0328372 -1.0442879 -0.6123659 8 0
14.922134 -7.6689353 0.29285139 1 8
2.3656623 -1.2163072 -0.61411637 7 1
14.993635 -7.7122989 0.88364035 1 9
2.8753939 -1.4790208 -0.62852484 3 2
30.148865 -15.514372 2.966433 9 10
3.6127126 -1.8598715 -0.6435715 6 3
30.071871 -15.48803 4.1533074 9 11
4.7697744 -2.4576488 -0.6588257 3 4
7.2513871 -3.7395151 -0.71380556 2 5
13.926326 -7.1848345 -0.82125586 8 6
30.333593 -15.66304 -0.59589493 7 7
2.0341415 -1.0543988 -0.61391884 8 0
30.181128 -15.64441 0.59338182 9 8
2.3579423 -1.2227633 -0.61321658 7 1
14.849613 -7.7038856 0.87673205 1 9
2.8629839 -1.4859322 -0.62699842 3 2
14.976939 -7.776577 1.4764183 3 10
3.6023653 -1.8712789 -0.64294571 6 3
29.763952 -15.461135 4.1182089 9 11
4.7646899 -2.476114 -0.6593132 3 4
7.2471285 -3.7694013 -0.7146771 2 5
13.774117 -7.170351 -0.81382424 8 6
30.080093 -15.66538 -0.59198564 7 7
2.0355844 -1.0641778 -0.61547172 7 0
14.601079 -7.6365047 0.28761569 1 8
2.3517184 -1.230494 -0.61276668 7 1
14.670441 -7.6760426 0.8677302 1 9
2.8577795 -1.4959167 -0.62699842 3 2
14.872041 -7.7881398 1.4687486 3 10
3.5993114 -1.8856758 -0.6435715 6 3
29.489067 -15.455854 4.0879855 9 11
4.7344856 -2.4824989 -0.65638834 3 4
7.2303967 -3.7928245 -0.71432841 2 5
13.720709 -7.2035336 -0.81214947 13 6
29.766758 -15.634524 -0.58688956 15 7
2.026731 -1.068574 -0.61391884 8 0
29.554657 -15.582402 0.58318961 9 8
2.3527956 -1.2410133 -0.61411637 7 1
14.512842 -7.6582289 0.85998452 1 9
2.8490677 -1.50405 -0.62623513 3 2
29.301935 -15.47531 2.8991485 9 10
3.5965319 -1.899446 -0.64419717 6 3
29.230541 -15.44413 4.0592246 8 11
4.7192073 -2.4944746 -0.65541339 3 4
7.2100692 -3.8143134 -0.71363121 2 5
13.721459 -7.2620726 -0.81361485 16 6
29.471674 -15.611035 -0.58214247 15 7
2.011235 -1.0689424 -0.6102953 7 0
14.340417 -7.6249356 0.28349692 1 8
2.3518906 -1.2510489 -0.61501622 6 1
14.366128 -7.6450396 0.85286689 1 9
2.837132 -1.5098003 -0.62470871 3 2
29.011276 -15.445058 2.875442 9 10
3.5863926 -1.9101316 -0.6435715 6 3
28.97323 -15.437785 4.0309505 8 11
4.7104712 -2.5109327 -0.65541339 3 4
7.1745272 -3.8260145 -0.71136516 2 5
13.727743 -7.3268533 -0.81549895 15 6
29.194759 -15.595097 -0.57774442 15 7
2.0143023 -1.0796068 -0.6123659 7 0
14.15158 -7.5880103 0.28028566 1 8
2.3406401 -1.2555661 -0.61321658 7 1
14.233762 -7.638474 0.84658653 1 9
2.8318446 -1.5196946 -0.62470871 3 2
28.704409 -15.410525 2.8503413 9 10
3.5675216 -1.9160961 -0.64138144 6 3
28.670855 -15.405407 3.9963396 8 11
4.719162 -2.5367589 -0.65785074 3 4
7.1558633 -3.8482037 -0.71084219 2 5
13.714395 -7.3813534 -0.81623167 17 6
28.950008 -15.594492 -0.57397473 15 7
2.008822 -1.0857129 -0.61184824 7 0
14.058163 -7.6012201 0.27895927 1 8
2.3311009 -1.2609473 -0.61186683 7 1
28.606432 -15.473892 1.7044775 8 9
2.8403358 -1.5370455 -0.62776166 3 2
28.527794 -15.44423 2.8381398 9 10
3.5625484 -1.929478 -0.64169425 6 3
28.403975 -15.390019 3.9666035 8 11
4.7032981 -2.5494325 -0.65687585 3 4
7.1528955 -3.8788574 -0.71188807 2 5
13.707855 -7.4396601 -0.81738305 15 6
28.754034 -15.612168 -0.57111257 7 7
2.0118051 -1.0964164 -0.61391884 7 0
13.783545 -7.5119128 0.27400279 7 8
2.3269067 -1.2686706 -0.61186683 7 1
13.80972 -7.5324306 0.82439607 2 9
2.8383999 -1.5488313 -0.62852484 3 2
28.225384 -15.408155 2.8133874 8 10
3.5595982 -1.9431745 -0.64232004 6 3
28.157654 -15.377562 3.9393051 8 11
4.6773973 -2.5554976 -0.65443844 3 4
7.1358161 -3.9018903 -0.71153951 2 5
13.679604 -7.4831595 -0.81717366 11 6
13.716477 -7.509551 -0.27295563 9 7
2.0047715 -1.1012213 -0.61288351 6 0
13.748478 -7.5551648 0.27382827 15 8
2.3258796 -1.278663 -0.61276668 8 1
13.749662 -7.5589399 0.82230264 13 9
2.8057241 -1.5430977 -0.62241894 3 2
13.774601 -7.5789137 1.3754919 8 10
3.5527937 -1.9555879 -0.64232004 6 3
27.881227 -15.353191 3.9081063 8 11
4.6823583 -2.5794718 -0.65638834 3 4
7.1071334 -3.9168768 -0.70997071 2 5
13.690125 -7.5511217 -0.81937182 9 6
1.9840158 -1.0988529 -0.60770714 4 0
2.3199217 -1.2854244 -0.61231679 7 1
2.8140562 -1.5604988 -0.62547189 3 2
13.756774 -7.6317825 1.3763635 7 10
3.5359247 -1.9616086 -0.64044279 6 3
27.614935 -15.326115 3.877883 8 11
4.6703076 -2.5930576 -0.6559009 3 4
7.0899339 -3.9397259 -0.70962203 2 5
13.692941 -7.6120043 -0.82104653 11 6
27.931211 -15.539929 -0.55791855 14 7
1.9919751 -1.1123648 -0.61133063 4 0
27.718998 -15.485274 0.55421865 16 8
2.3168962 -1.2948694 -0.61276668 7 1
27.596146 -15.429286 1.6569566 16 9
2.7983103 -1.5645639 -0.62318224 3 2
27.512264 -15.388691 2.7579563 17 10
3.5252635 -1.9726262 -0.63981706 6 3
27.378433 -15.326382 3.8525341 8 11
4.6538439 -2.6062779 -0.65492588 3 4
7.0813532 -3.9673722 -0.710145 2 5
13.671918 -7.6660485 -0.82146525 13 6
27.675266 -15.530634 -0.5539394 14 7
1.9981802 -1.124998 -0.61443645 6 0
27.438272 -15.454362 0.54968101 16 8
2.3004775 -1.2962524 -0.60961735 7 1
27.382053 -15.43529 1.6473267 16 9
2.7996728 -1.5781784 -0.62470871 3 2
27.239714 -15.361321 2.7359931 17 10
3.5200765 -1.98589 -0.64012986 6 3
27.144976 -15.320384 3.8271852 7 11
4.6447177 -2.6225069 -0.65492588 3 4
7.0674615 -3.9920664 -0.710145 2 5
13.671156 -7.7284684 -0.82303536 13 6
27.425953 -15.516858 -0.55003005 14 7
1.9992812 -1.1348268 -0.61598933 7 0
27.192879 -15.441428 0.54584146 16 8
2.3027167 -1.308125 -0.611417 6 1
27.123108 -15.41433 1.6349754 16 9
2.7873197 -1.5840613 -0.62318224 3 2
26.971155 -15.334204 2.7143784 16 10
3.5114062 -1.9971889 -0.63981706 6 3
26.911896 -15.312945 3.8018363 7 11
4.6182837 -2.6288836 -0.65248853 3 4
26.831509 -15.279607 4.8904548 9 12
7.0482888 -4.0137544 -0.70962203 2 5
13.670122 -7.790977 -0.82460541 11 6
27.152763 -15.48766 -0.54563206 14 7
1.9768637 -1.1312443 -0.6102953 7 0
26.930559 -15.417036 0.54165286 15 8
2.2998273 -1.3171234 -0.61186683 6 1
26.892372 -15.40764 1.6242989 16 9
2.7885869 -1.5976851 -0.62470871 3 2
26.713491 -15.311346 2.6938095 8 10
3.5009859 -2.0074685 -0.63919127 6 3
26.672316 -15.300117 3.7755127 7 11
4.6159663 -2.648941 -0.65346348 3 4
26.63068 -15.288591 4.8635483 9 12
7.0273242 -4.0343652 -0.70892483 2 5
13.661894 -7.8495917 -0.82575679 11 6
26.887043 -15.460735 -0.54137367 14 7
1.9678828 -1.1352419 -0.60874242 9 0
26.686066 -15.400998 0.53781337 15 8
2.2985911 -1.3270922 -0.61276668 6 1
26.637802 -15.385542 1.6121569 23 9
2.7659926 -1.5975903 -0.62089252 3 2
26.487371 -15.304821 2.6763785 8 10
3.4973776 -2.0216541 -0.63981706 6 3
26.436592 -15.28779 3.7496762 15 11
4.6066918 -2.6650376 -0.65346348 3 4
26.413019 -15.286467 4.8335128 9 12
7.0063014 -4.0548787 -0.70822757 2 5
26.65299 -15.450197 -0.53774357 14 7
1.9689181 -1.1450176 -0.6102953 8 0
26.483494 -15.407574 0.53481156 15 8
2.297313 -1.3370681 -0.61366647 6 1
26.394073 -15.367886 1.600643 15 9
2.7671854 -1.611187 -0.62241894 3 2
26.289171 -15.312949 2.6617362 8 10
3.4749386 -2.0248992 -0.63700122 6 3
26.197849 -15.272007 3.7233527 7 11
4.60079 -2.6831017 -0.65395093 3 4
26.175226 -15.271063 4.7997227 9 12
6.9886632 -4.0773025 -0.70787895 2 5
13.670578 -7.9820395 -0.82962966 1 6
26.457319 -15.460408 -0.53488135 14 7
1.9782419 -1.1596996 -0.61443645 9 0
26.270857 -15.406855 0.5316003 15 8
2.2775044 -1.3362039 -0.60961735 7 1
26.146582 -15.340109 1.5887104 15 9
2.7717035 -1.626799 -0.62470871 3 2
26.104982 -15.327952 2.6484888 8 10
3.4678495 -2.0370166 -0.63700122 6 3
25.942427 -15.244686 3.6945913 7 11
4.5879741 -2.6971331 -0.65346348 3 4
25.930311 -15.243655 4.7640557 18 12
6.9709525 -4.0996523 -0.70753026 2 5
14.203759 -8.3599758 -0.86375272 3 6
26.21291 -15.434421 -0.530972 14 7
1.9625397 -1.1597182 -0.61081296 8 0
26.044018 -15.390121 0.52803999 22 8
2.2764161 -1.3457325 -0.6105172 7 1
25.972538 -15.360115 1.5813835 15 9
2.7592494 -1.6324656 -0.62318224 3 2
25.866142 -15.309381 2.629663 16 10
3.4661751 -2.0515234 -0.63793981 6 3
25.758497 -15.251743 3.6755798 7 11
4.565341 -2.7042389 -0.65151358 3 4
25.679811 -15.21726 4.7277632 8 12
6.9463162 -4.1178641 -0.70648438 2 5
11.829331 -7.0153689 -0.72077084 2 6
26.029902 -15.449281 -0.52835417 21 7
1.9603431 -1.1672082 -0.61133063 9 0
25.814903 -15.376558 0.52447975 14 8
2.2767267 -1.356663 -0.61186683 7 1
25.757502 -15.354552 1.5715443 14 9
2.7437027 -1.6355751 -0.62089252 3 2
25.606466 -15.270576 2.608397 15 10
3.4572964 -2.0625982 -0.63762695 6 3
25.541462 -15.243898 3.6521809 7 11
4.5558739 -2.7201586 -0.65151358 3 4
25.484081 -15.221718 4.7014818 8 12
6.939465 -4.1449633 -0.70718169 2 5
11.741343 -7.0187011 -0.71689802 7 6
25.809359 -15.440463 -0.52496839 14 7
1.9496307 -1.1700674 -0.60926002 9 0
25.558767 -15.345118 0.52036095 14 8
2.276989 -1.3676122 -0.61321658 7 1
25.515427 -15.331215 1.5600303 21 9
2.7430251 -1.6481757 -0.62203735 3 2
25.358335 -15.24285 2.5885255 15 10
3.4449968 -2.0716 -0.63668835 6 3
25.304384 -15.222446 3.6258569 14 11
4.5429497 -2.7339981 -0.65102613 3 4
25.271713 -15.214808 4.6720724 8 12
6.9010577 -4.1547742 -0.7047413 2 5
11.650052 -7.0194435 -0.71281582 7 6
25.49501 -15.373506 -0.51966286 13 7
1.9488407 -1.1788657 -0.6102953 8 0
25.337385 -15.33278 0.5169403 14 8
2.2672002 -1.3725244 -0.61186683 7 1
25.280666 -15.310515 1.5489351 21 9
2.7406137 -1.6597747 -0.62280059 3 2
25.134571 -15.228033 2.5710945 7 10
3.4326766 -2.0805409 -0.63574976 6 3
25.081352 -15.20776 3.6014831 14 11
4.5469561 -2.758075 -0.65297598 3 4
25.06308 -15.208651 4.6432881 8 12
6.8848095 -4.1778049 -0.70456702 2 5
11.536709 -7.0061579 -0.70737284 6 6
25.324991 -15.391782 -0.51728934 13 7
1.9496621 -1.1886781 -0.61184824 8 0
25.153963 -15.341995 0.51428753 14 8
2.2557414 -1.37637 -0.61006725 7 1
25.049774 -15.290447 1.5380492 14 9
2.7264247 -1.6642168 -0.62089252 3 2
24.982635 -15.255453 2.5609841 15 10
3.4186506 -2.0883915 -0.6344983 6 3
24.851954 -15.187564 3.5761344 6 11
4.5237522 -2.7656467 -0.65102613 3 4
24.807619 -15.172364 4.6057439 16 12
6.8718839 -4.2028513 -0.7047413 2 5
11.4236 -6.9921665 -0.70192993 7 6
11.753964 -7.200017 -0.24059887 8 7
1.9389173 -1.1914308 -0.60977769 8 0
24.919676 -15.318699 0.51058757 20 8
2.2509232 -1.3842357 -0.61006725 7 1
24.863562 -15.296165 1.5298848 13 9
2.7172546 -1.6716663 -0.62012929 4 2
24.762947 -15.240224 2.5439017 14 10
3.4163864 -2.1034191 -0.63543689 6 3
24.670332 -15.195101 3.5576103 6 11
4.5073104 -2.7772553 -0.65005112 3 4
24.606527 -15.167654 4.5782113 8 12
6.8503871 -4.2226315 -0.70404404 2 5
11.320931 -6.9837632 -0.697115 7 6
11.643684 -7.1884775 -0.23885363 8 7
1.9281769 -1.1941231 -0.60770714 8 0
11.827866 -7.3278718 0.24286768 2 8
2.2460775 -1.3920844 -0.61006725 8 1
11.812596 -7.3241191 0.72841191 9 9
2.7097344 -1.6801064 -0.61974764 4 2
11.829927 -7.3377252 1.2179143 10 10
3.4107015 -2.1163731 -0.63574976 6 3
24.465349 -15.186899 3.5356736 13 11
4.5009613 -2.7950661 -0.65053862 3 4
24.425909 -15.174232 4.5544338 8 12
6.8389907 -4.248621 -0.70439273 2 5
11.238815 -6.9873834 -0.69355619 9 6
11.542116 -7.1815395 -0.23728292 8 7
1.9190804 -1.1977777 -0.6061542 8 0
11.797125 -7.3659377 0.24276298 12 8
2.2478156 -1.4040457 -0.61186683 8 1
2.7038531 -1.6895549 -0.61974764 4 2
11.745111 -7.34201 1.2118134 3 10
3.3882196 -2.1188395 -0.63293391 6 3
24.237165 -15.162713 3.5103247 13 11
4.4945431 -2.8128669 -0.65102613 3 4
24.202011 -15.152479 4.522521 16 12
6.8106084 -4.264009 -0.70299816 1 5
11.133118 -6.9756708 -0.68853194 7 6
11.44921 -7.1792917 -0.23588672 8 7
1.9197936 -1.2075552 -0.60770714 8 0
11.712105 -7.3697972 0.24154131 4 8
2.2429011 -1.4118834 -0.61186683 7 1
2.6946163 -1.6968906 -0.6189844 4 2
24.173815 -15.228957 2.4996266 7 10
3.3757889 -2.1274936 -0.63199526 6 3
24.039679 -15.156177 3.4893634 6 11
4.4914126 -2.8327742 -0.65200108 3 4
23.985252 -15.133567 4.4918594 15 12
6.8057928 -4.2941356 -0.70404404 1 5
11.031016 -6.9654374 -0.68371701 7 6
11.348009 -7.1711416 -0.23431601 9 7
1.923725 -1.2194204 -0.6102953 8 0
24.129185 -15.301034 0.49871999 6 8
2.2231491 -1.410309 -0.60781777 8 1
24.050608 -15.262977 1.492831 6 9
2.6953075 -1.7104938 -0.62051088 3 2
23.952305 -15.206459 2.4821956 7 10
3.3700099 -2.1403239 -0.63230819 5 3
23.872692 -15.167612 3.4727893 6 11
4.4747963 -2.8441756 -0.65102613 3 4
23.798923 -15.132404 4.4668303 7 12
6.8025312 -4.3253489 -0.70526421 1 5
10.929124 -6.954577 -0.67890209 8 6
11.248693 -7.1634469 -0.23278019 9 7
1.9145725 -1.2230082 -0.60874242 8 0
11.562636 -7.3889284 0.23951684 1 8
2.2214963 -1.4201599 -0.60871756 8 1
23.835651 -15.243533 1.4827825 12 9
2.6827042 -1.7156608 -0.6189844 4 2
11.509822 -7.3636694 1.1954281 1 10
3.364182 -2.1531391 -0.63262105 6 3
23.639048 -15.135249 3.4464653 12 11
4.4481239 -2.8490715 -0.64858866 3 4
23.646164 -15.151443 4.4480581 15 12
6.7974567 -4.3555169 -0.70631009 1 5
10.830805 -6.9452467 -0.67429656 7 6
11.146203 -7.1529884 -0.23117457 8 7
1.9200381 -1.2359579 -0.61184824 9 0
11.445987 -7.3707805 0.23763196 2 8
2.2165253 -1.4279057 -0.60871756 8 1
23.597626 -15.207631 1.4712685 12 9
2.6684482 -1.7196972 -0.61707634 4 2
11.40702 -7.3541403 1.1874098 2 10
3.3549857 -2.1637983 -0.63230819 6 3
23.459303 -15.13588 3.4279413 6 11
4.4448237 -2.8688872 -0.64956367 3 4
23.387352 -15.101023 4.4092622 15 12
6.7721686 -4.3727341 -0.70526421 1 5
10.751139 -6.9472404 -0.67084235 8 6
11.040566 -7.13973 -0.22949915 8 7
1.8962634 -1.2300365 -0.6056366 8 0
11.373219 -7.3802109 0.23665462 1 8
2.218066 -1.4398783 -0.6105172 8 1
23.460644 -15.235521 1.4660349 6 9
2.6607821 -1.7279322 -0.61669469 4 2
23.343987 -15.165554 2.4354801 13 10
3.3490684 -2.176573 -0.63262105 6 3
23.283169 -15.137605 3.4099045 6 11
4.4181414 -2.8735621 -0.64712632 3 4
23.202038 -15.096382 4.384233 7 12
6.7401643 -4.3854809 -0.70352113 1 5
10.67159 -6.9487619 -0.6673882 8 6
10.94186 -7.1301875 -0.22796333 9 7
1.9000435 -1.2419331 -0.60822481 9 0
23.297291 -15.233709 0.48587501 12 8
2.2032413 -1.4412115 -0.60781777 8 1
23.256222 -15.212648 1.4564052 12 9
2.6530919 -1.7361345 -0.6163131 4 2
23.157547 -15.159646 2.421535 6 10
3.3282301 -2.1795924 -0.63011813 6 3
23.064138 -15.110003 3.3855305 12 11
4.4280076 -2.9020236 -0.65005112 3 4
23.049414 -15.106104 4.3648348 7 12
6.7181501 -4.4046121 -0.70282388 2 5
10.578802 -6.9410481 -0.66309667 9 6
10.861317 -7.1291246 -0.22677657 11 7
1.89731 -1.2496206 -0.60874242 8 0
23.096346 -15.211888 0.48273358 6 8
2.1968226 -1.4474376 -0.60736781 8 1
23.042889 -15.188215 1.4463567 12 9
2.6584885 -1.7529501 -0.6189844 4 2
11.099868 -7.3217945 1.1633549 1 10
3.3193347 -2.1895294 -0.62980521 5 3
22.868099 -15.09019 3.3640816 6 11
4.4051061 -2.9079425 -0.64810121 3 4
22.844893 -15.086324 4.336051 14 12
6.709384 -4.4324293 -0.70352113 2 5
10.490744 -6.9331446 -0.65901446 9 6
10.774653 -7.1261802 -0.2254851 10 7
1.9012049 -1.2612451 -0.61133063 8 0
22.969793 -15.243765 0.48119774 12 8
2.183639 -1.4497077 -0.60511833 8 1
22.842642 -15.165121 1.4369361 6 9
2.6461191 -1.7574116 -0.61745793 5 2
22.814857 -15.158154 2.3964343 6 10
3.3133171 -2.2021964 -0.63011813 5 3
11.131585 -7.4014087 1.6413364 2 11
4.3817058 -2.9145064 -0.6461513 3 4
22.623684 -15.04822 4.3035126 7 12
6.6813788 -4.4458241 -0.70212668 2 5
10.403308 -6.9276547 -0.65503693 8 6
10.6794 -7.1141987 -0.22398418 11 7
1.8935785 -1.2657268 -0.6102953 8 0
22.749542 -15.206502 0.47763747 12 8
2.1869195 -1.4623572 -0.60736781 8 1
22.693281 -15.180358 1.4308652 11 9
2.6301787 -1.7600868 -0.61516827 5 2
22.599552 -15.129082 2.3793516 6 10
3.3109207 -2.2164683 -0.63105673 6 3
22.510851 -15.07539 3.326546 11 11
4.3654199 -2.9246011 -0.64517635 3 4
22.488972 -15.072112 4.2878695 7 12
6.6459603 -4.4558048 -0.70003492 2 5
10.327198 -6.9265146 -0.65168738 9 6
10.586428 -7.1057415 -0.22255309 10 7
1.8747278 -1.2626164 -0.6056366 8 0
22.5842 -15.216034 0.47533375 5 8
2.1831608 -1.471452 -0.60781777 8 1
10.813665 -7.2911634 0.68350762 2 9
2.6240191 -1.7692568 -0.61516827 5 2
22.447498 -15.141028 2.3688931 6 10
3.2978623 -2.2252736 -0.63011813 5 3
22.310656 -15.060061 3.3050969 11 11
4.3809938 -2.9583566 -0.64907616 3 4
22.296078 -15.061553 4.2615881 14 12
6.62046 -4.4722848 -0.69898903 2 5
10.242174 -6.9240494 -0.64791918 9 6
10.502343 -7.1052752 -0.22133142 10 7
1.8703091 -1.2691528 -0.6056366 8 0
22.375423 -15.189201 0.47205266 11 8
2.174787 -1.4768742 -0.60691798 8 1
10.758411 -7.3086638 0.68162352 2 9
2.6178274 -1.7784057 -0.61516827 5 2
22.249495 -15.120741 2.3535538 6 10
3.2835398 -2.2323291 -0.62886661 5 3
22.149616 -15.064168 3.28901 5 11
4.3640757 -2.9691641 -0.64810121 3 4
22.086599 -15.032588 4.2315526 6 12
6.5916324 -4.4863987 -0.69759458 1 5
10.156867 -6.9181581 -0.64404637 9 6
10.417993 -7.1013446 -0.22007485 11 7
1.8690568 -1.2778543 -0.60667187 8 0
22.180319 -15.17013 0.46905088 11 8
2.1631851 -1.480055 -0.60511833 8 1
22.16054 -15.16228 1.4072093 11 9
2.6180837 -1.7919681 -0.61669469 5 2
10.665932 -7.3031154 1.1309329 1 10
3.2692087 -2.2393122 -0.62761515 5 3
21.96262 -15.049381 3.2690237 11 11
4.3476553 -2.9791312 -0.64712632 3 4
21.945385 -15.043201 4.2140322 13 12
6.5726447 -4.5071268 -0.6972459 1 5
10.075018 -6.9140162 -0.64038283 9 6
10.344929 -7.1018996 -0.2190277 10 7
1.8759471 -1.2917145 -0.6102953 8 0
22.004734 -15.157386 0.46639812 11 8
2.1566606 -1.4861145 -0.60466844 8 1
21.922655 -15.106491 1.3952768 11 9
2.6088941 -1.7984115 -0.61593145 5 2
10.582606 -7.2977257 1.1246576 1 10
3.266643 -2.2535059 -0.62855375 5 3
21.739408 -15.002614 3.2431872 11 11
4.3312168 -2.989022 -0.6461513 3 4
21.726316 -14.999177 4.1814938 13 12
6.551105 -4.5243692 -0.6965487 0 5
9.9912424 -6.9053721 -0.63650995 9 6
10.257173 -7.091814 -0.2176664 12 7
1.8589532 -1.2891212 -0.6061542 8 0
21.868912 -15.171004 0.46458307 11 8
2.1549225 -1.4954801 -0.60556823 8 1
21.787758 -15.125973 1.3900431 11 9
2.5932395 -1.8003355 -0.61364174 4 2
10.479799 -7.2782259 1.1162907 1 10
3.25753 -2.2631996 -0.62824088 5 3
21.617817 -15.024773 3.2324629 11 11
4.3174973 -3.0018563 -0.64566386 3 4
21.547335 -14.986945 4.1570902 6 12
6.5156469 -4.5335531 -0.69445693 0 5
9.92239 -6.9065189 -0.63357919 9 6
10.171643 -7.0852857 -0.21637493 12 7
1.8462986 -1.2903925 -0.60356599 7 0
21.655193 -15.134984 0.46116239 11 8
2.1608689 -1.5108095 -0.60871756 8 1
21.613712 -15.117224 1.3822974 16 9
2.5834064 -1.8075771 -0.6128785 4 2
10.3845 -7.2686024 1.1089697 2 10
3.2475951 -2.2739906 -0.62792808 5 3
21.431898 -15.006777 3.212476 11 11
4.3102441 -3.0191867 -0.6461513 3 4
21.43018 -15.016726 4.1445751 13 12
6.4850988 -4.5459771 -0.69288814 0 5
21.274168 -14.918479 5.0507145 4 13
9.8594027 -6.9164581 -0.6311717 9 6
10.09938 -7.0874343 -0.21536268 10 7
1.8544198 -1.3057272 -0.60770714 8 0
21.504755 -15.147462 0.45913789 11 8
2.147352 -1.5131069 -0.60646802 7 1
21.41777 -15.09738 1.3732957 10 9
2.5770812 -1.8165838 -0.6128785 4 2
10.31347 -7.2726574 1.1040889 2 10
3.2267239 -2.2762034 -0.62542504 4 3
21.259977 -15.002819 3.194927 5 11
4.302393 -3.0372539 -0.64663881 3 4
21.213638 -14.981216 4.1132884 12 12
6.4594259 -4.5616908 -0.69184226 0 5
21.128963 -14.926946 5.0285807 9 13
9.8237829 -6.9427629 -0.63043898 15 6
10.016194 -7.0839906 -0.21414103 12 7
1.8419722 -1.3066038 -0.60511893 7 0
21.308239 -15.1206 0.45606631 10 8
2.1357009 -1.5160812 -0.60466844 8 1
21.290031 -15.118855 1.3684807 10 9
2.5835299 -1.8346622 -0.61593145 5 2
10.262033 -7.2901521 1.1013 1 10
3.217149 -2.2863083 -0.62511224 4 3
10.299572 -7.3222303 1.5516406 2 11
4.2852941 -3.0476515 -0.64566386 3 4
21.093613 -15.007081 4.1001477 12 12
6.4320989 -4.5761256 -0.69062209 0 5
20.948769 -14.909536 4.9980512 9 13
9.8190126 -6.9909134 -0.63169503 17 6
9.9409189 -7.0829382 -0.21305898 13 7
1.8436874 -1.3175185 -0.60718954 7 0
21.131695 -15.106503 0.45341352 10 8
2.1335661 -1.5257943 -0.60556823 8 1
21.07469 -15.076871 1.3580135 15 9
2.5659332 -1.8356732 -0.61326015 6 2
21.127615 -15.120311 2.2730217 5 10
3.2107544 -2.2986743 -0.62542504 4 3
10.099651 -7.2333074 1.5253168 1 11
4.2681746 -3.0579672 -0.6446889 3 4
20.896599 -14.97705 4.0719895 12 12
6.422564 -4.6031923 -0.69131935 0 5
20.864685 -14.959691 4.9904189 9 13
9.6468601 -6.9192147 -0.62216991 8 6
9.8560276 -7.074451 -0.21176751 14 7
1.8343735 -1.32056 -0.6056366 7 0
21.004189 -15.126418 0.45180789 15 8
2.1298082 -1.5343716 -0.60601819 7 1
20.9636 -15.108303 1.3542453 5 9
2.5483606 -1.8365835 -0.61058879 6 2
9.9846277 -7.1984911 1.0768963 3 10
3.2107222 -2.3156457 -0.62698942 5 3
20.802275 -15.008593 3.1495917 10 11
4.2542553 -3.0705235 -0.6442014 3 4
20.741693 -14.975895 4.0519657 6 12
6.3903031 -4.6139197 -0.68957621 0 5
20.659554 -14.922077 4.9537835 13 13
9.5643692 -6.910737 -0.61840177 8 6
9.8183098 -7.0994387 -0.21148828 15 7
1.8234969 -1.3224185 -0.60356599 7 0
9.9544382 -7.2217102 0.21466459 3 8
2.1260166 -1.5429411 -0.60646802 7 1
9.9281197 -7.2052608 0.64289492 5 9
2.5451119 -1.8477749 -0.61135209 6 2
9.8836718 -7.1782722 1.0687038 9 10
3.1898344 -2.3175502 -0.62448645 4 3
9.8947535 -7.191597 1.5019178 8 11
4.2435112 -3.085355 -0.6442014 3 4
20.570492 -14.95631 4.0281882 12 12
6.3580461 -4.6244788 -0.68783307 0 5
20.537489 -14.943278 4.9369922 9 13
9.4933586 -6.9099946 -0.61536622 8 6
9.7252007 -7.0813437 -0.20998736 13 7
1.8188698 -1.3287754 -0.60356599 6 0
9.8561592 -7.2004175 0.21305898 9 8
2.1193149 -1.548833 -0.60601819 7 1
9.8706617 -7.2162981 0.64080149 11 9
2.5354767 -1.8543298 -0.61058879 6 2
9.8682013 -7.2197871 1.0697495 9 10
3.1773491 -2.3246164 -0.62354785 4 3
9.8900738 -7.23844 1.5048428 9 11
4.2300529 -3.0970643 -0.64371389 3 4
20.406603 -14.946317 4.0062871 5 12
6.3193641 -4.6301589 -0.68539274 0 5
20.342125 -14.904548 4.9018831 13 13
9.4107904 -6.8977504 -0.61149341 8 6
9.6520491 -7.0797658 -0.20894021 12 7
1.8237902 -1.3416684 -0.60667187 7 0
9.8390179 -7.2407041 0.2132335 9 8
2.1060486 -1.5504447 -0.60376859 7 1
9.8405867 -7.2471566 0.64048749 2 9
2.5372176 -1.8685484 -0.61249691 6 2
9.7672091 -7.1957474 1.0613827 7 10
3.1708055 -2.3368649 -0.62386072 4 3
9.7592936 -7.1951704 1.4887561 9 11
4.2192159 -3.1118114 -0.64371389 3 4
20.27483 -14.95882 3.9906437 11 12
6.3103886 -4.6558204 -0.68608999 0 5
20.176245 -14.891523 4.8744068 8 13
9.3320255 -6.8902235 -0.60793453 8 6
9.5758123 -7.075388 -0.20782326 11 7
1.8159916 -1.3457263 -0.6056366 7 0
9.7317553 -7.2142701 0.21145335 7 8
2.1006238 -1.5577866 -0.60376859 7 1
9.7237988 -7.2136335 0.63452119 12 9
2.5243731 -1.8727149 -0.61097044 6 2
9.7516327 -7.2369208 1.0624285 12 10
3.1610427 -2.3467414 -0.62354785 4 3
9.7500534 -7.2410288 1.4911934 15 11
4.2051415 -3.1241529 -0.64322644 3 4
20.08614 -14.928164 3.963737 11 12
6.2877021 -4.6730657 -0.68539274 0 5
20.035912 -14.896265 4.8530364 13 13
9.2614412 -6.8881903 -0.60489905 8 6
9.4852867 -7.0598183 -0.20639215 14 7
1.8097352 -1.3509012 -0.60511893 7 0
9.7065125 -7.2481966 0.21145335 7 8
2.0967345 -1.5662761 -0.60421854 7 1
9.6774225 -7.229105 0.63305581 5 9
2.5099573 -1.8756391 -0.60906237 6 2
9.6688643 -7.2279716 1.0561533 5 10
3.1607416 -2.3636768 -0.62511224 4 3
4.1973891 -3.1411905 -0.64371389 3 4
19.979591 -14.952081 3.9524736 11 12
6.2458324 -4.6758809 -0.68260378 0 5
19.867506 -14.879025 4.8247967 8 13
9.1813955 -6.8785644 -0.60123557 8 6
9.405817 -7.0492597 -0.2051705 11 7
1.7972882 -1.3514053 -0.60253078 7 0
9.6280823 -7.2394848 0.21026659 4 8
2.0993159 -1.5790776 -0.60646802 7 1
9.6361694 -7.2508321 0.63200903 2 9
2.5049634 -1.8855696 -0.60944396 6 2
9.6451664 -7.262877 1.0563276 2 10
3.1465738 -2.3693919 -0.62386072 4 3
19.81333 -14.924994 3.0457587 9 11
4.1932912 -3.1598713 -0.6446889 3 4
19.775845 -14.90758 3.9224384 11 12
6.2199273 -4.6904564 -0.68155789 0 5
19.756924 -14.898726 4.8099136 12 13
9.1186743 -6.8789024 -0.59861875 8 6
9.3348694 -7.0471091 -0.20415826 11 7
1.7927969 -1.3573579 -0.60253078 7 0
19.878208 -15.055598 0.43526301 9 8
2.086025 -1.5805116 -0.60421854 7 1
19.813723 -15.017643 1.3029561 9 9
2.5033906 -1.8974237 -0.61058879 6 2
9.5638733 -7.2514849 1.0500524 2 10
3.1319885 -2.375586 -0.62260926 4 3
19.699438 -14.947268 3.0362532 14 11
4.1632614 -3.1600876 -0.64176404 3 4
19.660759 -14.928738 3.9099236 11 12
6.2011662 -4.7086473 -0.68120927 0 5
19.540644 -14.842907 4.7698436 12 13
9.0453091 -6.8732305 -0.59537387 7 6
9.260869 -7.0421286 -0.2030762 12 7
1.7911199 -1.3659505 -0.60356599 7 0
19.682447 -15.015733 0.43212157 14 8
2.0742986 -1.5830545 -0.60241896 7 1
19.667517 -15.015208 1.2967805 13 9
2.4936311 -1.9037681 -0.60982555 6 2
19.564697 -14.942116 2.1537926 4 10
3.1205375 -2.3841057 -0.62198347 4 3
19.509926 -14.911069 3.0150478 4 11
4.1458974 -3.1697779 -0.64078909 3 4
19.508108 -14.920471 3.8899 16 12
6.1720314 -4.7205815 -0.67981476 0 5
19.429462 -14.865694 4.755342 12 13
8.9609919 -6.858634 -0.59139633 8 6
9.193368 -7.0415816 -0.20213377 13 7
1.8001295 -1.3827859 -0.60822481 8 0
19.56966 -15.038046 0.43079522 9 8
2.0672152 -1.5890979 -0.601969 7 1
19.496241 -14.992455 1.2889301 9 9
2.4900832 -1.9148543 -0.61058879 6 2
19.474522 -14.981163 2.1496093 4 10
3.1153276 -2.3973932 -0.62260926 4 3
9.2963095 -7.1565375 1.4404957 2 11
4.1348076 -3.1842306 -0.64078909 3 4
19.318199 -14.882388 3.8623674 15 12
6.1555157 -4.7420969 -0.67981476 0 5
19.249939 -14.835155 4.7240496 12 13
8.8990355 -6.8606048 -0.58888423 8 6
9.1133184 -7.0308766 -0.2009121 12 7
1.7845963 -1.3807859 -0.60460132 7 0
19.403191 -15.018139 0.42828205 13 8
2.0693598 -1.6022695 -0.60421854 8 1
19.342733 -14.982143 1.2822311 13 9
2.4709673 -1.9139169 -0.6075359 6 2
9.3267698 -7.2267661 1.0322726 2 10
3.1069403 -2.4082532 -0.62260926 4 3
9.2304831 -7.1573176 1.4341586 3 11
4.1111193 -3.1889107 -0.63883913 3 4
19.169374 -14.874648 3.8429697 15 12
6.1279068 -4.7550049 -0.67859459 0 5
19.227503 -14.925134 4.7313004 16 13
8.8292856 -6.8561025 -0.58584875 8 6
9.0366125 -7.0221539 -0.19976024 14 7
1.7721468 -1.3810695 -0.60201317 8 0
19.256025 -15.012008 0.42618778 9 8
2.0652909 -1.6106815 -0.60466844 7 1
19.170639 -14.956203 1.274276 8 9
2.4642713 -1.9225307 -0.6075359 6 2
9.2606487 -7.227406 1.0277405 2 10
3.0985148 -2.4190838 -0.62260926 4 3
9.1694613 -7.1613903 1.4285525 3 11
4.0999627 -3.2032418 -0.63883913 3 4
19.20138 -15.00716 3.8598645 15 12
6.0971432 -4.7653241 -0.67702579 0 5
19.257259 -15.056249 4.7515259 12 13
8.7659683 -6.8561192 -0.58323193 9 6
8.9679537 -7.019145 -0.19878291 14 7
1.7597171 -1.3812828 -0.59942496 6 0
19.099705 -14.997623 0.42388406 4 8
2.0565908 -1.6154733 -0.60376859 7 1
19.090046 -15.000816 1.2723918 8 9
2.4637201 -1.9359728 -0.60906237 6 2
19.159937 -15.061144 2.1321781 4 10
3.0838406 -2.4250004 -0.62135774 4 3
9.075758 -7.1393523 1.4178281 3 11
4.0949965 -3.2224448 -0.63981414 3 4
19.201651 -15.115636 3.870502 15 12
6.0710788 -4.7791839 -0.67597991 1 5
19.240063 -15.151312 4.760303 12 13
8.6964846 -6.8508344 -0.58019644 10 6
8.9025679 -7.018218 -0.19787538 13 7
1.7715546 -1.400596 -0.60511893 7 0
19.072329 -15.08405 0.42444253 13 8
2.0448263 -1.6178058 -0.601969 8 1
19.111176 -15.12562 1.2773116 13 9
2.460026 -1.9469979 -0.60982555 6 2
19.154108 -15.165035 2.1374075 9 10
3.0722599 -2.4332974 -0.62073201 4 3
9.016551 -7.1438684 1.4124658 2 11
4.0712771 -3.2268543 -0.63786417 3 4
19.20759 -15.229207 3.882391 16 12
6.0574818 -4.8028221 -0.67632854 0 5
19.230125 -15.252542 4.7709885 12 13
8.6114988 -6.8327346 -0.57611424 8 6
18.496546 -14.681216 5.4519138 4 14
8.8341656 -7.0144339 -0.19689806 13 7
18.462774 -14.66492 6.3177733 4 15
1.762121 -1.4031613 -0.60356599 6 0
19.116533 -15.22778 0.42660663 9 8
2.0406907 -1.6261483 -0.60241896 8 1
19.087933 -15.21589 1.2793002 13 9
2.4501445 -1.9531255 -0.60906237 6 2
9.0193367 -7.1923132 1.0092635 3 10
3.0652916 -2.4452388 -0.62104493 4 3
8.9822502 -7.1678696 1.4110035 1 11
4.0599885 -3.241046 -0.63786417 3 4
18.502922 -14.775976 3.7503603 4 12
6.0406799 -4.8239374 -0.67632854 1 5
18.422089 -14.716692 4.5832324 11 13
8.5454683 -6.8290863 -0.57328814 8 6
18.381256 -14.694586 5.4330177 7 14
8.7596521 -7.0052629 -0.1957811 13 7
18.369232 -14.695487 6.3032794 4 15
1.7511842 -1.4044691 -0.6014955 6 0
19.09758 -15.321947 0.42737454 9 8
2.0380416 -1.6357012 -0.60331875 8 1
19.096561 -15.32661 1.2832778 13 9
2.4280031 -1.9493752 -0.60524619 6 2
8.9537878 -7.1913147 1.0047314 2 10
3.0613573 -2.4596353 -0.62198347 4 3
18.386267 -14.777656 2.896347 4 11
4.0331798 -3.2427595 -0.63542682 3 4
18.358372 -14.760509 3.7309623 9 12
6.0082793 -4.8325071 -0.6745854 1 5
18.343073 -14.758755 4.5763631 11 13
8.485795 -6.8300719 -0.57088071 8 6
18.235743 -14.682886 5.4051242 7 14
8.6865311 -6.9941406 -0.19466414 13 7
18.212074 -14.66907 6.2660093 8 15
1.7447681 -1.4093595 -0.60097784 6 0
8.910429 -7.197516 0.19993477 2 8
2.0356376 -1.6449001 -0.60421854 8 1
8.8970623 -7.1918526 0.59956074 1 9
2.4211836 -1.9578387 -0.60524619 6 2
8.8883562 -7.1899457 1.0001993 2 10
3.0439694 -2.4623196 -0.62010628 4 3
18.312473 -14.818566 2.8924472 8 11
4.0347476 -3.266108 -0.63737667 3 4
18.251471 -14.779751 3.7196991 9 12
5.972796 -4.8384008 -0.6724937 0 5
18.16131 -14.711987 4.5431623 11 13
8.4289589 -6.8305101 -0.56857789 9 6
18.111261 -14.681918 5.3826289 11 14
8.6247883 -6.9941921 -0.19382644 13 7
18.091747 -14.676567 6.242198 4 15
1.7385862 -1.4139186 -0.60046023 6 0
18.263783 -14.858457 0.41096926 8 8
2.0238376 -1.6470755 -0.60241896 8 1
8.8254385 -7.1850362 0.59642065 2 9
2.4177227 -1.9683356 -0.60600942 6 2
8.8366566 -7.196734 0.99706167 2 10
3.0322928 -2.4704349 -0.61948055 4 3
18.137533 -14.782071 2.8729482 8 11
4.0294766 -3.2851899 -0.63835168 3 4
18.114044 -14.773454 3.7021785 13 12
5.9536304 -4.8556623 -0.67214507 1 5
18.062689 -14.736819 4.5313325 14 13
8.363287 -6.8257923 -0.56575173 11 6
18.020655 -14.713006 5.3709316 3 14
8.5600548 -6.9913664 -0.19291891 13 7
17.941671 -14.658959 6.208034 4 15
1.7366291 -1.4224272 -0.6014955 7 0
18.168493 -14.886632 0.40999192 4 8
2.0075257 -1.6454825 -0.59926957 8 1
8.7539701 -7.1778073 0.59328043 2 9
2.4138737 -1.9792527 -0.6067726 6 2
18.066618 -14.818976 2.0443251 8 10
3.0221236 -2.4797513 -0.61916769 4 3
18.039793 -14.807509 2.8656361 8 11
4.0026431 -3.2866383 -0.63591433 3 4
17.992149 -14.778916 3.6877866 9 12
5.9274077 -4.8688269 -0.67109919 1 5
17.886755 -14.697576 4.5000396 10 13
8.2792358 -6.8054829 -0.56166953 9 6
17.887905 -14.708982 5.3466368 3 14
8.5000772 -6.9919853 -0.1921161 14 7
17.83967 -14.679763 6.190434 7 15
1.7346337 -1.430939 -0.60253078 6 0
18.002287 -14.855779 0.40740898 8 8
2.0122898 -1.6611644 -0.60241896 8 1
8.6715899 -7.1584811 0.5893029 1 9
2.4054363 -1.9864167 -0.60639101 6 2
8.7155409 -7.1998792 0.98904335 0 10
3.0180173 -2.4940605 -0.62010628 4 3
8.6428661 -7.1449199 1.3768799 1 11
3.9850266 -3.2955296 -0.63493931 4 4
17.827347 -14.742826 3.6640084 13 12
5.9057703 -4.8856778 -0.67057627 1 5
17.811142 -14.739896 4.4939337 14 13
8.2292767 -6.8126893 -0.55989015 9 6
17.73139 -14.684324 5.3151431 3 14
8.4368 -6.9869714 -0.19120856 12 7
17.683783 -14.650105 6.1531644 3 15
1.7221986 -1.4308127 -0.59994256 7 0
17.903704 -14.874501 0.40629202 4 8
2.0052712 -1.6665827 -0.601969 8 1
8.6127625 -7.1606154 0.58700013 1 9
2.3849025 -1.9835025 -0.60295647 6 2
17.79731 -14.807121 2.0254996 8 10
3.0142858 -2.5078449 -0.62104493 4 3
8.5672483 -7.1303658 1.3685929 1 11
3.9710255 -3.3061857 -0.63445187 4 4
17.724171 -14.761983 3.6533711 8 12
5.8794956 -4.8986111 -0.66953039 1 5
17.629433 -14.688289 4.4603515 10 13
8.1652155 -6.8054147 -0.55706394 7 6
17.622726 -14.693127 5.2971473 3 14
8.3555412 -6.9689889 -0.1899171 13 7
17.547985 -14.641197 6.1236591 3 15
1.7115172 -1.4315581 -0.59787202 7 0
17.735115 -14.839377 0.40363926 8 8
2.0039246 -1.6773247 -0.60331875 8 1
8.5570869 -7.1649923 0.5849067 1 9
2.3843331 -1.996442 -0.60448295 6 2
17.66563 -14.796973 2.0160866 3 10
3.0039992 -2.5170827 -0.62073201 4 3
8.5088377 -7.1321731 1.3632306 1 11
3.9746718 -3.332782 -0.63688928 4 4
17.554485 -14.724741 3.6289673 12 12
5.834888 -4.8960519 -0.6663928 1 5
17.528423 -14.708093 4.4477582 14 13
8.106226 -6.8043418 -0.55465651 7 6
17.487759 -14.684377 5.2719526 3 14
8.2990084 -6.9711032 -0.18918408 14 7
17.357744 -14.585538 6.0750012 3 15
1.7062589 -1.4378215 -0.59787202 7 0
17.628159 -14.854808 0.4023827 3 8
1.9920975 -1.6792853 -0.60151911 8 1
8.4953804 -7.1639171 0.58239454 1 9
2.3770001 -2.0051675 -0.60448295 6 2
17.516872 -14.781955 2.0052793 7 10
2.9856966 -2.5204308 -0.61885482 4 3
8.447484 -7.1310992 1.3573809 1 11
3.9508805 -3.3363898 -0.63493931 4 4
17.451672 -14.742584 3.6183295 8 12
5.8223271 -4.920248 -0.66691571 1 5
17.364948 -14.679714 4.4198999 10 13
8.0461559 -6.8043442 -0.55224901 7 6
17.35943 -14.685444 5.2494578 3 14
8.2318773 -6.9638672 -0.18820675 13 7
17.297876 -14.63855 6.0718951 7 15
1.707121 -1.4487687 -0.59994256 7 0
17.448591 -14.813194 0.39952049 7 8
1.9829586 -1.6840525 -0.60061932 8 1
17.431301 -14.808988 1.1987028 7 9
2.3744748 -2.017266 -0.60562783 6 2
8.4016199 -7.1402307 0.96463978 1 10
2.9693553 -2.5244398 -0.61729044 4 3
8.3623161 -7.1118565 1.347875 2 11
3.9386253 -3.3508477 -0.63493931 4 4
17.292217 -14.71683 3.5964289 8 12
5.7944961 -4.9315023 -0.66569555 1 5
17.25231 -14.688061 4.4042535 16 13
7.9782596 -6.7948341 -0.54921359 9 6
17.322897 -14.758588 5.2539568 3 14
8.1743374 -6.966753 -0.18747376 13 7
17.14414 -14.616627 6.0366955 3 15
1.7035221 -1.4559741 -0.60046023 8 0
8.365531 -7.1524162 0.1921161 2 8
1.9741061 -1.6884308 -0.59971952 8 1
17.315762 -14.81521 1.1943066 3 9
2.3599596 -2.0191603 -0.60371965 6 2
8.3372898 -7.1358309 0.96010768 1 10
2.9635267 -2.5373592 -0.61791623 4 3
8.3148251 -7.1216335 1.344219 1 11
3.9088156 -3.349077 -0.63201445 4 4
8.3526478 -7.1590843 1.7423673 1 12
5.7742209 -4.9491057 -0.66534692 1 5
17.120451 -14.679186 4.383646 10 13
7.918108 -6.7914348 -0.54670143 9 6
17.374802 -14.907794 5.28545 7 14
8.1044474 -6.956171 -0.18642659 13 7
17.013868 -14.608421 6.0087433 7 15
1.6911089 -1.4556102 -0.59787202 6 0
8.2950535 -7.1424313 0.19106895 2 8
1.969677 -1.6965833 -0.60016942 8 1
17.160608 -14.781307 1.1869795 7 9
2.3514099 -2.0261045 -0.60333806 7 2
8.2519646 -7.1128569 0.95313519 1 10
2.9591396 -2.551558 -0.61885482 4 3
17.080383 -14.732989 2.769603 7 11
3.9061191 -3.3704822 -0.63347691 4 4
17.018156 -14.684497 3.5601361 12 12
5.7508779 -4.9640241 -0.66464967 1 5
16.99481 -14.674704 4.3645649 16 13
7.8611016 -6.7903109 -0.54439867 9 6
16.921589 -14.621791 5.1630769 10 14
8.0465345 -6.9529371 -0.18562379 13 7
16.906872 -14.614229 5.9880376 3 15
1.6874771 -1.4627696 -0.59838963 7 0
8.2259912 -7.1306038 0.1900218 2 8
1.9699291 -1.7082125 -0.601969 8 1
17.072697 -14.809711 1.1844676 7 9
2.3413577 -2.0317266 -0.60257488 6 2
8.1909752 -7.1102724 0.94895172 1 10
2.946187 -2.5574722 -0.61791623 4 3
16.960987 -14.728375 2.7581472 11 11
3.8859289 -3.3756058 -0.63201445 4 4
16.933992 -14.715304 3.5532527 12 12
5.7139668 -4.9670753 -0.66238362 1 5
16.882341 -14.675595 4.348156 9 13
7.7948351 -6.7783351 -0.54136318 10 6
16.793613 -14.60876 5.138782 10 14
7.9829941 -6.9468522 -0.18471627 12 7
16.745014 -14.576756 5.9486971 6 15
1.6811616 -1.4670875 -0.59787202 7 0
8.1679087 -7.1303434 0.1892539 2 8
1.9654224 -1.7163601 -0.60241896 8 1
16.909161 -14.766397 1.1765125 10 9
2.3346074 -2.0394797 -0.60257488 6 2
8.1403475 -7.1137962 0.94581407 1 10
2.9312928 -2.5625403 -0.61666471 4 3
16.851194 -14.736525 2.7486415 7 11
3.8800983 -3.3943775 -0.63298941 4 4
16.786974 -14.685537 3.5326035 7 12
5.6869688 -4.9768119 -0.66116345 1 5
16.732038 -14.647795 4.322587 16 13
7.7681212 -6.8028708 -0.54115385 11 6
16.704407 -14.633903 5.1270847 9 14
7.929831 -6.9469318 -0.18401818 12 7
16.670431 -14.609284 5.9393797 3 15
1.6760303 -1.4729469 -0.59787202 6 0
8.0931492 -7.1125078 0.18806714 3 8
1.9509382 -1.7151482 -0.59971952 8 1
16.82152 -14.793677 1.1740003 6 9
2.33337 -2.0528035 -0.6041013 6 2
8.0855522 -7.1158423 0.94232786 1 10
2.9212961 -2.5709417 -0.6163519 4 3
16.686014 -14.690011 2.7296298 10 11
3.8688209 -3.4072258 -0.63298941 4 4
16.689661 -14.703564 3.5229044 15 12
5.6755409 -5.0019016 -0.6618607 1 5
16.637714 -14.662957 4.3107572 13 13
7.7455192 -6.8285928 -0.54115385 16 6
16.562246 -14.606723 5.0982909 9 14
7.874043 -6.9467888 -0.18328518 12 7
16.500563 -14.562565 5.8969331 6 15
1.6754771 -1.482337 -0.59942496 7 0
8.0413179 -7.1168599 0.18743885 3 8
1.9405622 -1.7180724 -0.59836978 8 1
16.644184 -14.741073 1.1652079 6 9
2.3192015 -2.0540218 -0.60219324 6 2
8.0141888 -7.100337 0.93674988 2 10
2.9152608 -2.5837436 -0.61697763 4 3
16.618298 -14.73368 2.7269487 3 11
3.8301716 -3.3970008 -0.62860215 4 4
16.556965 -14.689629 3.5056968 7 12
5.6708455 -5.0312729 -0.66325516 1 5
16.48805 -14.63363 4.2851887 12 13
