# .PCD v0.7 - Point Cloud Data file format
VERSION 0.7
FIELDS x y z intensity
SIZE 4 4 4 4
TYPE F F F F
COUNT 1 1 1 1
WIDTH 1127
HEIGHT 1
VIEWPOINT 0 0 0 1 0 0 0
POINTS 1127
DATA ascii
11.115038 3.420186 3.3373618 0.077838734
11.278572 3.581964 3.457845 0.087406844
11.677427 3.5845675 3.4912729 0.088266224
12.105186 3.5700545 3.4554584 0.085088395
12.478302 3.5627222 3.4114451 0.082254231
13.074697 3.5750804 3.5121243 0.088788807
13.463076 3.3670049 3.3495097 0.083042979
13.866526 3.3876264 3.2908556 0.080978319
14.234167 3.3281636 3.2595534 0.079569764
14.736599 3.3151746 3.2471437 0.081609271
14.987648 3.2878013 3.2585318 0.11097927
15.380329 3.280694 3.2427225 0.0804023
15.823911 3.3002114 3.2396274 0.08114852
16.154186 3.3359814 3.2264037 0.083286166
16.505058 3.4738591 3.2808423 0.080825523
17.059547 3.4754441 3.378161 0.12552239
17.415718 3.3873887 3.2381716 0.084767595
17.620916 3.3895125 3.240658 0.084825024
18.043972 3.5470157 3.3109009 1.0314918
-2.0566325 3.6838498 3.2398319 1.1177591
-1.8321882 3.6222739 3.2973895 0.32509473
-1.3873776 3.6600327 3.2400856 0.21152866
-0.9793371 3.6910377 3.3060288 0.27392966
-0.65679669 3.6602526 3.2914939 0.592857
-0.17130466 3.6692171 3.2376878 0.46125317
0.19970363 3.6425891 3.3692985 0.25862831
0.62047088 3.6328747 3.2842116 0.1491681
1.0993192 3.6525919 3.2530138 0.1962391
1.4301132 3.653075 3.2712135 0.32218289
1.8162409 3.6493418 3.2729931 0.12357646
2.1628931 3.6620216 3.3286562 0.14295553
2.6480417 3.6109495 3.350004 0.095962659
3.0464711 3.6449456 3.2872524 0.087299675
3.4838953 3.6323366 3.3621716 0.067206994
3.8516946 3.6616123 3.3271966 0.068288773
4.2097816 3.6443267 3.3629336 0.062269874
4.5218954 3.6628723 3.367789 0.063385457
5.0600061 3.6455276 3.3420582 0.072667852
5.5204878 3.6372364 3.4030805 0.061489057
5.6359987 3.6089656 3.386971 0.06145801
6.0469933 3.6139398 3.3621938 0.060580149
6.5965071 3.6381559 3.3730302 0.063065208
6.9572778 3.695101 3.3955317 0.062344927
7.3195667 3.7226315 3.426024 0.064649731
7.6274586 3.7241199 3.4019732 0.06389384
8.0344257 3.7318926 3.3967466 0.063150182
8.6006289 3.6979513 3.3709822 0.066810749
8.9667683 3.8190498 3.4492829 0.068154544
9.2267933 3.8110728 3.4403486 0.067652524
9.6438742 3.7964673 3.4068694 0.066666484
10.053218 3.7020659 3.3752103 0.066666752
10.77109 3.8017449 3.3754015 0.071972616
10.99045 3.9127908 3.4739647 0.072790846
11.231197 3.9053221 3.4555836 0.071608514
11.631032 3.8988137 3.4441581 0.069916032
12.254295 3.7750702 3.4877434 0.079908989
12.730262 3.7933128 3.4906001 0.080191709
12.999682 3.8077111 3.465488 0.080572128
13.3904 3.7772367 3.4798303 0.08146923
13.973997 3.8845677 3.3576531 0.075117573
14.358807 3.9479342 3.389611 0.077782974
14.71863 3.9890277 3.4092355 0.079267696
14.97175 3.9349642 3.4593263 0.08086139
15.383879 3.8837433 3.4376612 0.079996787
15.750088 3.9757032 3.4401813 0.079815499
16.3088 3.9251528 3.4149215 0.080359727
16.496639 3.919632 3.4014437 0.080849923
16.937288 3.9472971 3.4611545 0.083068043
17.493088 3.9460583 3.3352847 0.083317496
17.614693 3.9409575 3.4178648 0.082038917
18.021519 3.6522789 3.3756933 0.907897
14.372225 4.0344563 3.471678 0.076279789
14.724234 4.069706 3.4854958 0.078112483
15.074776 4.0216951 3.4418969 0.079717569
15.446495 4.0885601 3.317492 0.081003234
15.858185 4.0803051 3.4306703 0.081761025
16.198622 4.0894208 3.4536762 0.08179076
16.410366 4.1316729 3.4766359 0.082080126
17.072214 4.1486015 3.43753 0.083333343
17.336693 4.1702304 3.4241564 0.083838768
17.626844 4.1646719 3.5191259 0.082769334
-1.7043561 3.1130397 3.6462417 1.0907269
-1.2548822 3.1831107 3.6311612 1.0929823
-1.0543427 3.1265621 3.6015532 1.0929823
-0.17114986 3.1767375 3.6011178 1.0932331
-2.0353041 3.489876 3.7046287 1.0937347
-1.7076764 3.4455476 3.8275609 1.0907934
-1.4042745 3.383544 3.6586623 1.0911337
-1.1169975 3.302403 3.6759899 1.0923558
-0.56408381 3.3661098 3.6560113 1.0732056
-0.23195225 3.340457 3.6620917 1.075454
0.15602434 3.3815789 3.6142178 1.0944793
0.43803763 3.4617636 3.6345923 1.0913372
1.1282133 3.4560051 3.6214218 1.0923865
1.4971237 3.5047181 3.6338212 1.0949945
1.6906363 3.5016832 3.6258879 1.0952377
2.0890508 3.5564823 3.644326 1.0951128
2.6032262 3.5570011 3.6322818 1.0955513
2.9822092 3.5002003 3.6182489 1.094642
3.8020725 3.5033472 3.6353188 1.0952696
4.2605848 3.5478735 3.6434619 1.0956135
4.6557875 3.5886426 3.6108859 1.0964909
5.1282401 3.5883675 3.6066949 1.0968671
13.090994 3.4411211 3.6032841 0.04588281
13.447648 3.4525614 3.6839404 0.045865059
15.013956 3.5963986 3.630095 0.046616554
15.453537 3.4422898 3.6373668 0.046741962
15.833896 3.5397947 3.6091008 1.0521307
16.527653 3.5683227 3.6162393 0.92692655
17.117361 3.5651131 3.624563 1.0498552
17.496355 3.5525012 3.6366665 1.0223644
17.77829 3.5702429 3.6363943 1.0537429
18.044376 3.527349 3.6395903 0.80250645
1.5436159 3.6026778 3.672281 1.0952377
2.0210879 3.6279593 3.6664822 1.0954885
2.5262494 3.6114399 3.6569548 1.0957394
2.9553015 3.6479769 3.6631858 1.0959902
4.2730074 3.6165092 3.6122723 1.09624
4.6192856 3.6124411 3.6170318 1.0964909
5.0196209 3.6178744 3.6088464 1.0968044
5.8350496 3.6309829 3.6065233 1.0974941
6.1084213 3.6318507 3.6057925 1.097744
11.328368 3.6494994 3.6074727 0.048621178
12.00867 3.6478348 3.6018829 0.049373627
12.520027 3.6164358 3.61373 0.047869682
13.889999 3.6574216 3.6119745 0.070551395
14.344848 3.6904407 3.610733 0.57243109
14.706894 3.6910686 3.6043813 0.10907876
15.034612 3.7653129 3.6035542 0.095121458
15.461062 3.7497916 3.6071019 0.09258192
15.710944 3.7983656 3.6050334 0.091125771
16.287909 3.8015132 3.6047635 0.091644071
16.476322 3.8185582 3.613446 0.092376381
16.870197 3.8290811 3.609772 0.091658548
17.29781 3.8436081 3.6203957 0.099567227
17.690422 3.8201232 3.6251926 0.097599328
18.097889 3.6084683 3.6613884 1.054637
-1.8450661 -4.8714881 -2.7353601 0.97899705
-1.1538873 -4.8667855 -3.0112219 1.041604
-0.029752797 -5.0682726 -2.5401921 1.0402727
0.48550379 -4.8801198 -2.8923507 1.0401084
0.88177478 -4.8769302 -2.7556345 1.0407574
1.8658034 -4.8354435 -2.8142967 1.0391281
2.579942 -4.8939466 -2.5853729 1.0157001
3.6991444 -4.8644919 -2.5962276 0.19201434
4.3310356 -4.8184328 -2.5342367 0.59181285
4.9441257 -4.8131752 -2.4918895 0.63844538
5.6512966 -4.8062215 -2.4462459 0.26079082
-1.8659779 -4.502697 -2.7091827 0.89845777
-1.2097051 -4.6385441 -2.8123 0.57425922
-0.19438061 -4.7392082 -2.4377275 0.75562167
0.46722063 -4.5784311 -2.9125233 1.0123723
1.4929736 -4.6710887 -2.8137789 0.98206431
1.6702104 -4.6025157 -2.9309707 1.0405859
2.8497267 -4.5383186 -2.9101479 1.039097
3.6212142 -4.7322221 -2.8349857 0.78847528
4.0801811 -4.7584743 -2.734297 0.62168616
5.1075068 -4.7851443 -2.5017166 0.5788601
5.8098545 -4.7362142 -2.4405084 0.43926129
6.819046 -4.7112203 -2.4943285 0.21167862
7.5741806 -4.1394243 -2.4611142 0.033227038
8.3610134 -4.1799655 -2.4908452 0.030488284
9.2623491 -4.2892852 -2.524344 0.026553113
10.025074 -4.5206661 -2.5046244 0.12264941
10.767838 -4.3182554 -2.5002613 0.11908317
11.632151 -4.3490295 -2.4535296 0.11515403
12.136621 -4.4077878 -2.4060378 0.18217272
13.206293 -4.392169 -2.4533856 0.11008416
13.926998 -4.4160719 -2.5471306 0.11544809
15.029587 -4.0068674 -2.4783874 0.39238739
15.880888 -4.1200671 -2.5414009 1.1047984
16.674591 -4.1284661 -2.4492173 0.98301649
16.918713 -4.1547155 -2.4580622 0.67841983
17.669123 -4.1145654 -2.4502726 0.79347301
-1.9775691 -3.6929412 -2.4116116 1.0433607
-0.87783748 -3.3195863 -2.4288239 1.1091001
-0.43925309 -3.4767663 -2.465945 1.0426075
0.046232052 -3.5702653 -2.5098233 1.0426066
0.97382343 -3.6335883 -2.5100918 1.0139406
2.038619 -3.6875939 -2.5389307 1.0413537
2.4350338 -3.7674222 -2.5782843 1.0413537
3.3329313 -3.6973779 -2.5220337 1.041604
4.2563295 -3.7297306 -2.5451212 1.041832
5.0702906 -3.5943491 -2.4613361 1.0416052
5.7097483 -3.9828024 -2.4012115 0.045883849
6.8018146 -3.9259992 -2.4078212 0.13004917
7.424037 -3.9661169 -2.403897 0.036666565
8.3801403 -3.8969326 -2.4758112 0.42814845
9.2026043 -3.8676493 -2.4685507 0.26748306
10.199765 -3.9748702 -2.403194 0.076089464
10.903715 -3.8252661 -2.4220557 0.044930276
11.518838 -3.8247166 -2.4065266 0.032962527
12.359514 -3.8768911 -2.4051042 0.12197581
12.962805 -3.8915157 -2.4272487 0.12200701
14.346716 -3.7838306 -2.4322791 0.60299599
14.999865 -3.9054012 -2.5128584 0.98104155
15.299054 -3.9549828 -2.5359817 1.0429043
16.229849 -3.7196832 -2.4249015 1.0584631
17.118767 -3.7714324 -2.4544959 0.69366634
17.807098 -3.8299785 -2.4709291 0.91379833
-1.6066015 -3.1924965 -2.4202042 1.1097745
-1.8584929 -5.0442572 -1.9440368 0.53285474
-0.92540586 -4.9777784 -1.8141789 0.097228676
-0.068350255 -5.3055377 -2.0207205 0.46803588
0.044785887 -5.3668346 -1.8499115 0.18912698
0.87505865 -5.1631994 -2.0160286 0.79033208
2.0354254 -4.8673258 -2.3801522 1.060614
2.6949701 -5.1942496 -1.8956686 0.9829179
3.348382 -5.1216364 -1.9838284 0.83533281
4.1432524 -5.0403919 -2.07004 0.75845146
4.9366455 -5.0184317 -2.0115914 0.76730293
5.7589512 -5.0372963 -1.8408146 1.0349627
6.6198273 -5.0528755 -1.6913002 1.0333909
7.4626961 -5.0303535 -1.6269073 1.0317055
8.432498 -4.958159 -1.6621947 1.0287952
8.8676147 -4.8958025 -1.7486943 1.0275452
9.6866474 -4.813323 -1.843506 1.0209877
11.103974 -4.8051281 -1.7931974 1.0371952
11.261513 -4.8058958 -1.772747 1.0739279
12.257531 -4.820118 -1.628139 1.1189108
12.949332 -4.8115845 -1.6998451 1.1223671
13.857027 -4.8039851 -1.6165714 1.0908649
14.464645 -4.84238 -1.6862435 1.0306304
15.343872 -4.8278704 -1.7088017 0.94524121
16.452225 -4.8076959 -1.6411602 1.0732218
17.228443 -4.8088121 -1.6368674 1.0269969
17.727846 -4.8219328 -1.7032847 1.0196152
-1.8965291 -4.2297902 -1.9780821 0.5990569
-0.85272026 -4.7852869 -2.2782664 0.1033289
-0.17699015 -4.4620361 -2.1084962 1.0815632
0.41970518 -4.7785473 -2.1465087 1.0837076
1.3857831 -4.7809868 -2.2561963 1.0447869
1.8116701 -4.7830691 -2.3230824 1.0679195
2.7676024 -4.7221146 -2.3258681 1.0702747
3.7808108 -4.7030878 -2.322062 1.0699327
4.5112791 -4.7338686 -2.329833 1.0624313
5.2510242 -4.7734041 -2.3191497 0.55638236
6.2499514 -4.4057093 -2.3527141 0.39819667
6.806294 -4.5810151 -2.3487115 0.54370904
7.4778605 -4.708127 -2.3276942 0.54294157
8.298667 -4.7093725 -2.2982717 0.53802156
9.0137167 -4.6692486 -2.3049521 0.43959653
10.157654 -4.7414379 -1.9290836 1.0214037
10.795366 -4.708005 -1.9259872 0.9568119
11.627422 -4.661253 -1.9227326 0.91107881
12.413058 -4.5709143 -2.0250189 0.66541141
13.227108 -4.4581304 -2.1335037 0.5664475
14.119102 -4.3683891 -2.2552819 0.58776098
14.834216 -4.4732127 -1.9277167 0.56338388
15.785118 -4.3655524 -2.051826 0.61407012
16.424749 -4.3197589 -2.0938549 0.4877775
17.263069 -4.3498335 -1.8929802 0.60434914
17.921768 -4.2074895 -1.844552 0.62284756
-1.9165398 -3.6154284 -2.1886041 0.79304141
-0.93102157 -3.2312942 -2.0821857 1.0875485
-0.3816455 -3.2782269 -1.9278853 1.0668685
0.38000315 -3.2554483 -2.3369427 1.0453542
1.2523642 -3.3573363 -2.2891281 0.3865279
1.7212796 -3.5955815 -2.2739582 1.0560544
2.8423097 -3.5569072 -2.3197184 1.0537124
3.5086832 -3.6658387 -2.3569942 1.0544164
4.3752747 -3.4729352 -2.3474274 1.0478916
5.5036073 -3.48557 -2.2101102 0.044476014
5.9010429 -3.8148935 -2.3372452 0.037768904
6.9092269 -3.5202777 -2.2301559 0.03674395
7.7900014 -3.4261343 -2.1998405 0.034758903
8.5173817 -3.5387201 -2.2469602 0.03169718
9.3095417 -3.6713014 -2.3023391 0.027494
10.194187 -3.5668457 -2.2676277 0.1221401
11.002934 -3.4568496 -2.229979 0.11714716
11.82773 -3.539341 -2.2664566 0.11280091
12.65207 -3.6192472 -2.3002033 0.1102844
13.449819 -3.5647647 -2.2854779 0.10759747
14.009872 -3.4152637 -2.2493472 0.35583898
15.024934 -3.2879844 -2.2443757 0.82852018
15.790096 -3.4830031 -2.3482132 1.1013094
16.024536 -3.6063411 -2.3922439 1.1034756
17.119343 -3.2760789 -2.230988 1.1015389
17.946966 -3.7657797 -2.1213825 0.73991287
-1.9558868 -3.036037 -1.836658 0.67899537
-1.1397964 -3.0001116 -2.250201 1.1087836
-0.27121627 -2.4846666 -2.0201242 1.0446112
0.035039905 -2.5368028 -2.0411303 1.0446115
1.3679721 -2.9727397 -2.2162678 0.073325835
1.6350691 -3.0687196 -2.2671914 0.086600229
2.9296939 -2.8172226 -1.9049075 1.0577936
3.52356 -2.6609955 -1.9520047 1.0504732
4.4327741 -2.7479603 -2.1073127 1.0416445
5.2339196 -2.6781518 -1.9837664 0.54164064
6.0268183 -2.7809787 -1.9418349 0.040608265
7.0161705 -2.5880575 -1.8749855 0.039780926
7.8717103 -2.7025428 -1.9230881 0.037304319
8.7204256 -2.7476177 -1.9456609 0.033837374
9.4476423 -2.9258957 -2.018296 0.028683627
10.153181 -2.8393364 -1.9891005 0.095568657
10.782058 -2.7685478 -1.9657389 0.11809623
11.507068 -2.8396833 -1.9975249 0.11238309
12.305017 -2.7026024 -1.950294 0.10775488
12.854135 -2.831161 -2.0013371 0.10635594
14.070612 -2.9333482 -2.0682526 0.4218846
14.964609 -2.6946313 -1.9912255 0.76362944
15.271372 -2.7629545 -2.0179505 0.8279407
16.376987 -2.9612594 -2.1091993 1.0938153
16.857971 -2.9781313 -2.1114287 0.8156755
17.787947 -2.5612967 -1.7364309 0.51129818
-2.0675848 -1.809338 -1.6049538 1.0456777
-1.1665951 -2.1247492 -1.8718154 1.1086988
-0.28190261 -1.8035579 -1.7250352 1.0451127
0.040277123 -1.8857167 -1.761348 1.0450971
1.0736296 -2.0883398 -1.8112407 0.5516336
2.2173498 -1.6386496 -1.7176507 1.1087949
2.7889466 -1.7325206 -1.6729827 1.0447996
3.8168294 -2.16187 -1.8534969 1.0434779
4.1152043 -1.8732679 -1.7228904 1.0440894
5.2715831 -2.0087478 -1.7585835 0.90039557
5.6689253 -2.0865707 -1.6899383 0.16721819
6.5033984 -2.0108385 -1.6508214 0.042775005
7.2754283 -2.2124505 -1.7336385 0.040942241
8.1210232 -2.3577752 -1.7930758 0.038308896
8.9425087 -2.0150056 -1.6666219 0.037299234
9.6936378 -2.3175287 -1.7871065 0.029467713
10.43078 -1.9307145 -1.6539457 0.044912755
11.338049 -1.7785137 -1.6175034 1.0553701
12.288639 -2.1763549 -1.7484574 0.10503471
12.987856 -2.1907842 -1.7581427 0.10308404
13.757381 -2.3365426 -1.8328145 0.51461935
15.087307 -2.2943616 -1.8194189 0.10693998
15.742006 -1.8023901 -1.6083374 0.63151956
16.126003 -1.8759847 -1.6374905 1.0987372
16.877716 -2.1196091 -1.7269166 1.0973805
17.814358 -2.1324654 -1.6174207 0.61940277
-1.7344537 -1.3694792 -1.6667376 1.1117573
-1.2078139 -1.5420122 -1.6303234 1.1068461
-0.54278243 -1.479018 -1.6200774 1.091665
0.40275478 -1.5669938 -1.6298265 1.0604637
1.2517097 -1.5907441 -1.715333 0.056892216
2.2332795 -1.423386 -1.6279416 1.1089895
3.0717711 -1.451377 -1.6144218 1.108094
3.415318 -1.5662155 -1.615078 1.0611504
4.0588007 -1.5694604 -1.6056757 1.0604275
5.3906684 -1.5852091 -1.6061559 1.0679469
6.2998562 -1.5740509 -1.6240048 1.044173
6.5422988 -1.5833397 -1.6260741 1.0430017
7.5895805 -1.5729423 -1.6143245 0.92888546
8.6242743 -1.5493115 -1.6484319 1.0413859
9.7658291 -1.5770614 -1.6050396 1.0476832
10.746531 -1.5404453 -1.6199977 1.0447025
11.447489 -1.5777415 -1.6198294 1.0471178
12.329754 -1.4883132 -1.6035066 1.0437344
14.61349 -1.4379787 -1.6090717 1.0458648
15.803983 -1.508598 -1.615 0.55162919
0.61830658 -5.6248102 -0.92890644 1.0516918
0.89754176 -5.6368399 -0.84110034 1.0517545
-1.8582608 -5.2863369 -1.2394876 0.40091887
-0.81910938 -5.293416 -1.0160098 0.091046244
-0.053816784 -5.2100306 -1.1563296 0.8880437
0.16460195 -5.5732546 -1.2614541 1.0402466
0.92258906 -5.4017949 -1.2202206 0.14871937
1.7867606 -5.4037733 -1.029985 0.060654908
2.7660794 -5.4466562 -0.90769982 0.053018775
3.7858686 -5.2976437 -1.5095567 1.0376322
4.2245145 -5.3294392 -1.3870122 1.0367943
5.1068473 -5.3368015 -1.2551872 1.0356325
5.8650093 -5.3099141 -1.2081653 1.0345159
6.6711206 -5.3726144 -0.95756745 1.0329924
7.5448151 -5.2645707 -1.0915726 1.0310434
8.4629107 -5.1304111 -1.2721674 1.0286222
9.1598177 -5.0495749 -1.3582436 1.0263269
9.9484386 -5.0320964 -1.2904892 1.1233608
10.827603 -5.0843296 -1.0553857 1.1198415
11.622336 -4.931819 -1.2899809 1.1165833
12.455593 -5.0282984 -0.96337032 1.1138358
13.248194 -5.0226073 -0.87104261 1.1114457
13.871546 -4.9391904 -0.97732204 1.1097114
14.470843 -4.8099012 -1.208632 1.1083307
15.293757 -4.8037462 -1.4172776 0.88269722
16.763966 -4.9161539 -0.84312814 0.16462877
17.047857 -4.8086977 -0.84741592 0.54907215
17.745605 -4.9093761 -0.94127595 0.60539758
-1.9007291 -4.4722724 -1.3655006 0.73098415
11.967569 -4.7988701 -1.5654054 1.115497
12.135102 -4.79389 -1.5624022 1.1153653
14.100251 -4.6605663 -1.5829024 0.67216349
15.000659 -4.7267761 -1.2946856 0.66231692
15.757858 -4.6845751 -1.2889172 0.64671266
16.543636 -4.6714716 -1.2111547 0.62206864
17.058926 -4.7261543 -1.0179194 0.97613418
17.893465 -4.3230705 -1.2004992 0.99803346
-1.9369764 -3.598731 -1.3444111 0.54081023
17.948338 -3.8380306 -1.3538375 1.0740647
-1.9993808 -2.4170017 -1.326296 0.50993156
-0.83880043 -2.4850478 -1.4839368 1.068922
-0.23478585 -2.6241989 -1.5290151 1.0829573
0.39889109 -2.5183141 -1.5275223 1.0848372
1.5263934 -2.5727456 -1.5644581 1.0706336
1.8477249 -2.5725601 -1.564569 1.0706925
2.7723176 -2.5418687 -1.5380051 1.073344
3.3443611 -2.5296087 -1.5280224 1.0734178
4.541769 -2.4185967 -1.5626681 1.0820804
4.9677086 -2.414547 -1.5942488 1.0806549
17.882904 -2.5688353 -1.1918061 0.098806903
-2.0261624 -1.8934646 -1.1503497 0.77765709
-0.94753873 -2.032851 -1.5147192 1.0446732
-0.12256391 -1.7946727 -1.4716655 1.0572071
0.58642852 -1.8827114 -1.5081849 1.057445
1.3022738 -1.8801646 -1.4866084 0.56101322
2.0202315 -1.8713877 -1.2757139 1.070875
2.6564703 -1.8054245 -1.2509437 1.0719709
3.6324277 -1.7094841 -1.2609191 1.0687103
4.2581015 -1.6543388 -1.4704463 1.0566485
5.0118628 -1.6167874 -1.5700543 0.76106536
6.0131536 -1.718127 -1.5689908 1.0530612
6.9361081 -1.6122885 -1.580876 0.99541831
7.423737 -1.6265848 -1.5096527 0.043598264
8.1928034 -1.785212 -1.5748949 0.041540589
9.4966221 -1.6108435 -1.5153155 0.060784943
9.661356 -1.6559749 -1.5306678 0.044882871
10.954962 -1.689075 -1.5777471 1.0554069
11.273695 -1.6995213 -1.5776546 1.0558639
12.102412 -1.6387664 -1.5494388 1.0591788
12.968888 -1.7325368 -1.577239 1.0610216
13.873541 -1.6808051 -1.5829709 1.0558795
15.023825 -1.6125872 -1.5278683 0.74833584
15.787962 -1.6198227 -1.5258214 0.94898415
16.049564 -1.676131 -1.542093 1.0898542
17.166874 -1.7311978 -1.5827205 0.39901215
17.850904 -1.9056033 -1.3781828 0.57512528
-2.0538971 -1.3759168 -1.2175585 0.64526486
-1.1680409 -1.24244 -1.3849521 0.61151814
-0.3046878 -0.86244035 -1.3105364 1.0468673
0.031836305 -0.91867959 -1.3380473 1.0468674
0.89542919 -1.1218392 -1.4248133 0.79870379
2.243896 -0.9109019 -0.91874695 1.0659544
2.9790611 -1.2197168 -1.2719102 1.0555995
3.3562369 -1.4422172 -1.5384979 1.0453634
4.399436 -1.2967911 -1.4661034 1.045576
5.09198 -0.98340672 -1.3099499 0.84896839
5.9379168 -1.2480465 -1.3832296 0.41570395
6.6500931 -1.4478961 -1.4414233 0.12135354
7.5865049 -0.975546 -1.2617559 0.046997786
8.2289028 -1.2732513 -1.378958 0.044924092
8.850668 -1.4303286 -1.4443187 0.044849861
9.6257362 -1.4821955 -1.4700134 0.047247574
10.618129 -0.82206643 -1.2068846 1.0553784
11.550587 -0.8243587 -1.189467 1.0637767
12.689901 -0.81638527 -1.1933429 1.0927093
13.267727 -1.1238432 -1.3241773 1.0967548
14.059881 -1.3557482 -1.4225529 0.99829316
14.891971 -1.1548477 -1.3373767 0.7631579
15.652901 -1.2800145 -1.3766643 1.0714954
16.397488 -1.268881 -1.3652515 1.096941
17.29385 -1.2687593 -1.337602 0.93008137
17.820183 -1.3578866 -0.90350395 0.63855648
-2.13679 -0.18549064 -0.83941042 0.96408612
-0.92715359 -0.2493051 -0.84547991 0.20477368
-0.11490536 -0.39259762 -1.1001956 1.0473529
0.029699273 -0.42074049 -1.1164744 1.0473466
0.9591791 -0.67998439 -1.098459 0.57053053
2.3608084 -0.60405916 -0.97374004 0.59907097
3.0192432 -0.62948221 -1.1648579 1.0483747
3.6706998 -0.42057681 -1.0837549 1.0478666
4.5261717 -0.15302131 -0.96040303 1.0488479
5.3291674 -0.52223647 -1.1126878 0.94375682
6.0973415 -0.39688981 -1.038779 0.41654703
6.9192119 -0.54293472 -1.1009096 0.44356045
7.4139557 -0.47460169 -1.0719461 0.39380097
8.0800838 -0.035146315 -0.88247263 1.0527873
9.1010303 -0.0093726525 -0.86577582 1.0553861
9.6470547 -0.17271027 -0.93506587 1.055388
10.465586 -0.36800897 -1.0161002 1.0554574
11.666012 -0.012387484 -0.84939981 1.0638264
12.565672 -0.28385484 -0.95857424 1.0904756
13.323257 -0.25495961 -0.94072968 1.0918874
14.228259 -0.4897863 -1.0372438 1.0939313
14.541059 -0.31632274 -0.95910585 1.0746782
15.565693 -0.17582172 -0.88899875 1.0934587
16.500309 -0.54743832 -1.0467927 1.0949283
16.953426 -0.73597795 -1.1247807 1.0954548
17.768522 -0.51766229 -0.97242689 0.49560213
-2.1256735 0.017885922 -0.80486923 1.0478735
-0.96170199 0.14528254 -0.93912864 1.1067147
-0.17198746 0.28202295 -0.82842648 1.063037
0.452907 0.21624592 -0.82131326 1.0046978
0.96075982 0.18386391 -0.90160048 0.083467469
2.0695269 0.027372507 -0.8038336 0.11643561
3.067142 0.32893696 -0.83512688 1.0420257
3.3346467 0.21839428 -0.80856895 1.0492922
4.28228 0.22287703 -0.80564046 1.0497494
5.1752377 0.046194445 -0.86756027 1.0497508
5.6582451 0.069391236 -0.8617034 1.0501275
6.975894 0.051403679 -0.85394883 0.6958431
7.7857141 0.033033766 -0.85393023 1.03671
8.5052586 0.13096662 -0.80619544 1.0553499
8.845541 0.050754774 -0.83912218 1.0553869
10.178492 0.10408938 -0.80520922 1.0567141
10.47077 0.10426052 -0.80725944 1.05896
11.935931 0.033273526 -0.82332557 1.0821743
12.094469 0.075338095 -0.80330169 1.0795437
13.11721 0.057985991 -0.80247909 1.0886931
14.077337 0.058100007 -0.80330074 1.08319
14.868298 0.021531539 -0.80413961 1.0904307
15.58479 0.05498255 -0.82962942 1.0936302
16.522514 0.067903735 -0.82192755 0.94536889
17.186703 0.059605811 -0.83992058 0.50979435
17.906727 0.056141861 -0.85746813 0.36028439
-1.8466222 -5.6622677 -0.64412475 0.6728853
-1.2399666 -5.6301818 -0.2547392 0.10267101
0.38481888 -5.6651845 -0.47458789 1.0397444
1.3952498 -5.7594395 -0.4594245 1.047521
2.053628 -5.7974043 -0.61334294 1.0384092
2.4263949 -5.7503328 -0.60136116 1.0393182
3.746048 -5.6345344 -0.46096581 1.0411569
4.0609493 -5.6603251 -0.50103974 1.0367314
5.0104103 -5.6555061 -0.52400029 1.0366142
6.051867 -5.6057119 -0.46052724 1.035064
6.5194516 -5.6194086 -0.47364736 1.0330709
7.6835442 -5.6038799 -0.38759166 1.0320148
8.2081251 -5.6299343 -0.37674004 1.022911
9.0533981 -5.6058054 -0.4427523 0.80322695
10.198034 -5.6182485 -0.27577072 0.048715234
11.879116 -5.6227341 -0.43473744 0.073934913
12.365153 -5.6073279 -0.35769451 0.064849854
13.107526 -5.6420469 -0.41182664 0.063721836
14.066638 -5.6142817 -0.3123579 0.056391001
14.693117 -5.6130037 -0.19220547 0.046114922
17.267109 -5.6334805 -0.3919192 0.059022665
-1.9020364 -4.9898171 -0.70681286 0.78864217
-0.86129737 -5.2121677 -0.28924417 0.99733555
-0.63475746 -5.3702559 -0.34930521 1.0408309
0.1232699 -5.5754576 -0.43819064 1.0402046
1.3958235 -5.0268707 -0.19660798 0.91704482
1.9295802 -4.9388733 -0.14099331 1.0399075
2.615447 -5.1879096 -0.24661402 1.0389825
3.3543117 -5.4520693 -0.35778978 1.0378664
4.3961935 -4.9915032 -0.14604579 1.037627
4.9430628 -5.4145584 -0.40265864 1.0360817
5.8334613 -5.2702093 -0.30134133 1.0350198
6.7822995 -5.1454525 -0.19789346 1.0334969
7.4225903 -5.4303193 -0.41859913 1.0313767
8.2750988 -5.3668742 -0.64520574 1.0291009
9.1481972 -5.1618156 -0.36745819 1.0265812
10.071207 -5.2526474 -0.49434045 1.1229451
10.710358 -5.2494907 -0.48247793 1.1204796
11.70554 -5.1551151 -0.248051 1.116549
12.497729 -5.1472774 -0.23525496 1.1137806
13.270409 -5.1375084 -0.30381185 1.1114702
14.084554 -5.0918403 -0.42940608 1.1094174
14.866694 -5.112184 -0.47057676 1.1079053
15.607827 -5.120738 -0.38525644 1.0147744
16.501249 -4.9587026 -0.4192346 0.95233577
17.191908 -4.8684673 -0.53795624 1.1033207
17.922993 -4.8217206 -0.17732973 1.1034485
-1.9100986 -4.4472861 -0.64897102 0.45522529
-0.90713513 -4.4864454 -0.058775995 0.59505808
-0.13691375 -4.4161224 -0.068578809 0.063024662
0.47583449 -4.6425724 -0.037796021 0.056106973
1.4797066 -4.7356305 -0.057011768 0.91750813
1.7850838 -4.7679591 -0.065842189 1.0409465
2.5479736 -4.7644825 -0.057182737 1.0113723
3.6506732 -4.6651201 -0.008351489 1.0390518
4.0360112 -4.7603188 -0.046334919 1.0389862
5.4475584 -4.6872768 -0.0031180335 1.0375371
5.6447654 -4.7275524 -0.021215936 1.0374947
6.4623446 -4.7851114 -0.03139523 1.0312667
7.3355045 -4.758471 -0.010552012 0.55026287
8.4821014 -4.7816577 -0.022396477 1.0299083
9.0890388 -4.7607183 -0.013157783 1.0234613
9.8342371 -4.7692022 -0.037267338 0.05790022
11.062189 -4.7271419 -0.018875126 0.058601186
11.311438 -4.7609701 -0.026741294 0.057836153
12.381016 -4.7570133 -0.025676627 0.059974127
12.956456 -4.7605658 -0.012421753 0.058650531
13.852163 -4.7388382 -0.035724144 0.067073002
15.079659 -4.778893 -0.045823723 0.064628199
15.864674 -4.750371 -0.0085387751 0.97884393
16.624622 -4.7394085 -0.012796102 1.1102407
17.335468 -4.7319374 -0.050270312 1.113838
17.953758 -4.5622649 -0.51051718 1.1028227
-1.9694118 -3.5387704 -0.2275469 0.67990959
17.922579 -3.6970689 -0.45535019 0.71677804
-1.9986089 -2.7439563 -0.46386996 0.53915262
17.879421 -2.7430716 -0.23082238 0.18053883
-2.0563531 -1.7107149 -0.51259422 0.51935875
17.839617 -1.9440736 -0.5040825 0.57575125
-2.0860169 -1.2163459 -0.1309258 0.54692662
17.79875 -1.1823126 -0.38936904 0.62230867
-2.125169 -0.29883519 -0.38098082 0.54773521
-1.4337142 -0.26841128 -0.76803035 0.60301161
-0.11751512 -0.18502457 -0.63975549 1.0629823
0.32667205 -0.12124868 -0.70031226 1.0600235
1.5305645 -0.65700144 -0.76324105 1.0709813
2.1505251 -0.2542707 -0.63406861 1.0664842
2.7600091 -0.42748836 -0.72497642 1.0666678
3.75383 -0.090449862 -0.69477415 1.0624478
4.4589901 -0.11318965 -0.75377226 1.060613
5.3031321 -0.09758351 -0.76751447 1.0603616
5.9794388 -0.079170503 -0.77195287 1.0606244
6.9726849 -0.054139417 -0.76061124 1.062333
7.7602458 -0.080918819 -0.77811348 1.0630428
8.6394939 -0.03989099 -0.7939356 1.0622691
9.0317345 -0.04910931 -0.77662802 1.0639737
9.9051075 -0.032243345 -0.7904132 1.0654855
10.798374 -0.035913076 -0.77801609 1.0714598
11.588484 -0.10960102 -0.78970885 0.55463648
13.25403 -0.0007043067 -0.79695398 1.0661234
14.281992 -0.041546397 -0.78790343 1.0703676
14.610622 -0.031624779 -0.78324145 1.0671613
15.599524 -0.054051355 -0.78580099 1.0644671
16.4312 -0.10532241 -0.77671313 1.0662583
17.329309 -0.028644057 -0.74003565 1.0635335
17.75592 -0.43967175 -0.16577102 0.581595
-2.156796 0.48564425 -0.47997326 0.69187462
-0.87125254 0.18041265 -0.6806547 0.17721969
-0.1135923 0.71575058 -0.62782502 1.0491163
0.050322335 0.68053412 -0.63547975 1.0491228
1.167076 0.34695703 -0.70010895 0.58204287
2.1841567 0.4914985 -0.28192881 1.0718516
2.9046023 0.38657844 -0.54884046 1.0586625
3.7466314 0.40293893 -0.71914762 1.0498999
4.5595322 0.5495863 -0.64971381 1.0507832
5.4048996 0.4973042 -0.66695791 1.0378469
6.2696314 0.2650657 -0.77260929 0.55021942
6.4448109 0.22439498 -0.79210353 0.55803639
7.6564989 0.73166853 -0.5471552 1.0557673
8.4264879 0.45494273 -0.66186959 1.056982
9.3526039 0.54891884 -0.61396873 1.0624603
10.264917 0.51232493 -0.62403715 1.0697602
10.486078 0.65595442 -0.55981725 1.0717264
11.236918 0.4090569 -0.66222876 1.0790321
12.227875 0.39188135 -0.66279107 1.0850204
12.852166 0.46554801 -0.62491763 1.0870447
13.902333 0.28949949 -0.69568092 1.0900983
14.55146 0.60552323 -0.55094612 1.089942
15.356994 0.5357095 -0.57588738 1.0910697
16.299131 0.27163228 -0.68560416 1.0925874
16.831825 0.12125207 -0.74570835 1.0910184
17.720537 0.35104024 -0.32844839 0.59935522
-2.1942577 1.0153131 -0.087117687 0.56896561
-0.85942018 1.0503228 -0.51551807 1.1041949
-0.13334444 0.91744655 -0.48979014 1.0508299
0.51934612 1.2218273 -0.40195644 0.67856514
0.9910965 1.1431377 -0.19836752 0.84288812
2.2711616 1.2434344 -0.021071121 1.0647268
2.7227502 1.1538697 -0.060713995 1.0678942
3.721787 1.0020711 -0.26334861 1.0610275
4.3704505 1.3629922 -0.1176708 1.0613614
5.0420856 1.2815074 -0.32260239 1.0531205
5.7432885 1.2685101 -0.33173871 0.90292132
6.6712317 0.99886853 -0.43700325 1.0145613
7.245316 1.2386765 -0.3249979 1.056589
8.30513 1.3083243 -0.28601471 1.0600009
8.9425812 1.2272927 -0.31778279 1.0624405
9.7146978 0.99796015 -0.41296783 1.0662055
10.546286 0.98901445 -0.41121674 1.0720372
11.408488 1.2008219 -0.31148016 1.0775555
12.293123 1.3749437 -0.22733089 1.0812461
13.165351 1.437089 -0.19343318 1.0841069
13.880115 1.2086039 -0.28935331 1.0866858
14.721127 1.3198507 -0.23401441 1.0878487
15.550738 1.1769843 -0.29106531 1.0894136
16.366005 1.0402714 -0.34578568 1.0906136
16.896452 0.97520399 -0.36057523 1.0911751
17.655056 1.3309073 -0.043395538 1.0350614
-2.2380834 1.880106 -0.0066555031 1.0500364
-1.2892557 1.7877548 -0.15678722 1.1003323
-0.037574291 2.2165828 -0.14430317 1.1058073
0.53965729 1.6890783 -0.28773281 0.20477352
0.91227448 1.9649681 -0.13928378 0.10043856
2.336669 1.9897325 -0.21433076 1.1047556
2.6139791 1.608005 -0.0072054798 1.0889747
3.732698 1.8072236 -0.05884172 1.0938101
4.3923635 1.7836167 -0.065627754 1.0928338
5.1644244 1.9652838 -0.018823743 1.0549428
5.8303175 1.927081 -0.03133972 1.0558271
6.6614881 1.8751235 -0.048303291 1.0572019
7.5278492 1.7285464 -0.10697547 1.0588362
8.0394688 1.6299112 -0.15001878 1.058815
9.2330742 1.9553938 -0.0035691692 1.0626251
9.9722233 1.8880459 -0.018046658 1.0687981
10.740952 1.7307775 -0.081761338 1.0728228
11.250365 1.627002 -0.12557641 1.0719752
12.580391 1.7655654 -0.047439594 1.0782979
13.256176 1.7237952 -0.060209062 1.0789976
14.290714 1.8714237 -0.003892089 1.0822892
14.928801 1.8437331 -0.006321548 1.084579
15.71974 1.8176733 -0.0046512648 1.0865738
16.55077 1.8029621 -0.0022379246 1.0882061
16.898098 1.7930275 -0.006950058 1.0887083
17.669437 1.7637548 -0.040320717 0.64320517
-0.17921869 2.5265732 -0.013408145 1.1075224
0.070618547 2.5216067 -0.013112941 1.1075187
1.587763 2.4514277 -0.0518727 1.1115288
1.6822586 2.4533603 -0.041606531 1.1115288
3.2762551 2.4467716 -0.009593525 1.1083959
4.3940268 2.4173682 -0.0074762725 1.1087719
15.98081 2.7818677 -0.0015757933 1.035589
16.217083 2.5804691 -0.055689551 1.0375941
17.926315 2.4562621 -0.061135363 1.0345865
-0.33742034 -5.0230494 0.023500372 1.0531387
0.28749621 -4.84025 0.10870931 0.10244671
1.1403538 -4.922626 0.092321835 1.0548385
2.1493349 -4.8509054 0.10144193 0.062860705
2.8152127 -4.9426117 0.043945476 1.0537282
3.742506 -4.8844919 0.046162754 0.55025095
4.5686388 -4.9017124 0.0079277661 0.81552303
5.2649765 -4.8405662 0.017232109 0.81453931
5.8199701 -4.8230162 0.01747494 1.0496457
6.6520925 -4.879921 0.011659252 1.0746869
7.3976688 -4.8420177 0.0020273242 0.55056381
9.3870392 -4.9466343 0.0076385676 0.048496276
10.107584 -4.972909 0.0091672102 0.047994614
11.12874 -4.9948111 0.012475459 0.048015729
12.673582 -5.0586181 0.011159935 0.0466168
13.105011 -4.8640981 0.018880906 0.049498558
13.795479 -4.8251133 0.040115036 1.0370862
14.941757 -4.820406 0.023561161 1.1037354
15.616333 -4.8534279 0.013077844 0.70251012
16.245798 -4.8528967 0.017103223 0.053377319
17.401133 -4.8370543 0.02154048 1.1047674
17.820787 -4.8657794 0.019059906 0.55388474
-1.9597695 -4.0153799 0.05834496 0.3778978
-0.83001542 -4.2905226 0.24764453 1.0992805
-0.38974452 -4.3181944 0.31780517 0.23469856
0.47057164 -4.5735102 0.22360566 0.052161507
1.5183858 -4.5419674 0.042076603 1.0410709
2.1662481 -4.1425638 0.21402045 1.0416064
2.8436913 -4.2975626 0.14799842 1.0404308
3.3239706 -4.5121365 0.05529239 1.0396622
4.6664877 -4.3769007 0.12864558 1.0386755
5.2575011 -4.3192325 0.15677305 1.0380769
6.1344786 -4.2561789 0.19113219 1.0369632
6.9379425 -4.3576698 0.15284702 1.0351347
7.6722045 -4.326673 0.17002159 1.0333928
8.0449448 -4.6174278 0.048244864 1.0327089
8.8312855 -4.420785 0.15038198 1.034007
9.6473866 -4.6145029 0.05613412 1.0340595
10.471882 -4.423646 0.14246158 0.056805357
11.347607 -4.0921731 0.26619458 0.058574993
12.142243 -4.2948103 0.16896321 0.058744747
12.936411 -4.341939 0.15254571 0.058815911
14.242485 -4.6113243 0.091636434 1.0914583
15.026372 -4.5999908 0.10417748 1.1063722
15.635055 -4.4068923 0.19416672 1.1049479
16.120594 -4.037046 0.36187655 1.1034791
16.837069 -4.1313572 0.33355874 0.82012343
17.676453 -4.3648658 0.17909688 1.1024773
-1.9589311 -3.6886146 0.25842521 0.21199028
-0.89679766 -3.4318237 0.48618874 0.9550243
-0.1927714 -3.3846397 0.75975811 0.05064052
0.10269463 -3.3008389 0.79578817 0.0468674
1.4957018 -3.6256912 0.43953761 1.0427717
1.9889984 -3.8962512 0.31999427 1.0416822
3.0431843 -3.4913797 0.50743616 1.0419222
3.8237827 -3.8076129 0.37226021 1.0407348
4.5445752 -3.8213212 0.3708486 1.0400989
5.4697223 -3.3773136 0.57474399 1.040369
5.6406178 -3.3726439 0.57628131 1.0403464
6.6969528 -3.6582203 0.45869473 1.0376556
7.2686052 -3.8765049 0.36901903 1.0366257
8.03685 -3.8899403 0.3750501 1.0387754
8.8517876 -3.4109578 0.58077025 0.056849994
10.027622 -3.3373704 0.60178947 0.058391165
10.478951 -3.5668356 0.50067127 0.058653496
11.255749 -3.2271118 0.63939929 0.060621481
12.039166 -3.5239739 0.49918461 0.060817275
12.899892 -3.6887186 0.43071777 0.060846873
13.803218 -3.7725978 0.41232717 0.058726355
14.51329 -3.7656426 0.42286578 0.058693662
15.353289 -3.6058197 0.49134266 0.058728702
16.382725 -3.5705593 0.58618283 0.097637706
16.999796 -3.5210273 0.59467071 0.51660311
17.789581 -3.6144848 0.34887561 0.59374517
-2.0176048 -2.7443237 0.50228685 0.49482298
-0.91154784 -2.6445894 0.67358315 0.33059481
-0.43255499 -3.0229475 0.68170333 0.58360708
0.40721083 -3.1235588 0.75450498 0.20809048
1.4531106 -3.0393145 0.70880067 0.79830146
2.3339226 -3.0570238 0.69457662 1.0354111
2.5336924 -3.1630344 0.64448369 1.042888
3.8659706 -2.9837909 0.73377597 1.0428087
4.5057812 -3.072351 0.70252132 1.0419831
5.1578436 -2.9942846 0.73974085 1.0417717
5.9539027 -3.0271454 0.73248452 1.0408447
6.4757237 -3.1465647 0.68499339 1.0405284
7.2907581 -3.057487 0.73354828 1.0422378
8.708643 -3.045157 0.72999203 0.057228625
9.4637165 -2.9740543 0.76033682 0.058610871
9.6526604 -2.9847045 0.75572419 0.058598559
10.66053 -2.8780456 0.79165757 0.060627766
11.294284 -3.0235939 0.72360587 0.061202377
12.347975 -2.8795419 0.76832163 0.064572483
12.916395 -2.9244838 0.75597918 0.064394854
13.709401 -3.136322 0.67851913 0.060904361
14.548389 -3.142894 0.67956388 0.06079524
15.317205 -2.9828117 0.75995594 0.060917906
16.295994 -3.0608902 0.78107393 0.096365988
17.53396 -2.9649763 0.70237184 0.60387176
17.847206 -2.5684135 0.76142228 0.45119444
-2.0551603 -2.0596032 0.4882811 0.54140615
-1.3700386 -2.1660695 0.76357305 1.1142911
-0.28563744 -2.3561499 0.75862092 0.069611505
0.90282989 -2.3938603 0.78965926 0.083959818
2.2172747 -2.3871953 0.78221357 0.071334571
2.8294227 -2.3112564 0.77915692 0.069956109
3.6809297 -2.3584976 0.78957754 0.071052596
4.8924246 -2.3749218 0.79913563 0.069423519
17.820425 -1.9889237 0.39128184 0.76333928
-2.1070712 -0.96419138 0.42098141 0.4057557
17.772762 -1.0287231 0.40574497 0.63796711
-2.1218882 -0.67217708 0.44424802 0.5145458
17.72554 -0.062535062 0.33692837 0.56828701
-2.1830664 0.52672756 0.45969358 0.49089348
17.715328 0.1455815 0.42023256 0.60817283
-2.2076352 1.1703287 0.25493404 0.57214904
-0.49131501 1.2804849 0.068637691 1.0710839
0.13121739 1.5496171 0.080116645 1.0625298
1.2416263 1.5362172 0.10852379 1.084837
2.1823034 1.2618045 0.041066855 1.0723994
2.6935449 1.3624911 0.026055057 1.066509
3.2562776 1.4346235 0.10029148 1.0746946
5.4395618 1.577688 0.023080692 1.0677631
6.1841836 1.5704727 0.01444362 1.0675439
6.6275778 1.5297635 0.036396652 1.0713131
9.3594437 1.5748427 0.0086540887 0.034649134
10.063489 1.5491126 0.010120027 0.035165966
14.802935 1.3644106 0.016685529 0.037093163
15.472207 1.5763919 0.12622176 0.037343025
17.517429 1.5876443 0.01069172 1.0867264
17.659452 1.2731837 0.43758306 0.66452932
-2.2410774 1.8690954 0.24675758 0.79940921
-0.83693516 2.3100615 0.058406994 1.1034297
-0.32178617 2.1799591 0.41036469 1.0643113
0.19936107 2.1812458 0.27403894 1.0599176
0.84149563 1.9937861 0.212741 1.0686815
2.3511269 1.847851 0.24452752 1.0667601
3.0281448 2.2592463 0.34797147 1.0639591
3.8431807 2.2763796 0.32572454 1.0636175
4.4819555 2.2991829 0.3260119 1.0640867
5.2166128 2.17767 0.21537854 1.0623674
6.1853237 2.1416128 0.14518052 1.0602994
7.0410995 2.3899004 0.17783886 1.0588737
7.6109347 2.3056958 0.14911246 1.06055
8.3899364 2.1686287 0.09403237 1.0626251
9.2557411 2.1255698 0.082004838 1.0658085
9.6216755 2.089081 0.065680124 1.0658627
10.499807 2.1518621 0.086543292 1.0660956
11.83604 2.383894 0.21161076 1.0766343
12.566319 2.2610319 0.16618998 1.0799316
13.231255 2.1785049 0.1343013 1.0821347
14.116856 2.0791435 0.097032443 1.084576
14.927413 2.0119717 0.073530421 1.0863422
15.748152 1.9513991 0.05216378 1.0876901
16.533815 1.9009221 0.035798721 1.0887492
17.357576 1.763418 0.054833531 1.0894225
17.632013 1.7500992 0.13044649 1.0900059
-2.288784 2.691644 0.57186478 0.8781563
-1.1196265 2.4625075 0.10273813 1.0965796
-0.075039051 2.564889 0.49963456 1.0627072
0.39389002 2.7273083 0.56213534 1.0620127
1.3226442 2.8516405 0.63211274 0.95977771
2.1979203 2.846869 0.6789915 1.0657566
3.0706587 2.7042654 0.52155888 1.0635432
3.7962101 2.6164737 0.46945053 1.0636215
4.4713235 2.8291812 0.54947317 1.0639646
5.3244343 2.6945257 0.30380881 1.0567532
6.0144887 2.579596 0.25799888 1.0576468
6.8869414 2.770221 0.34949669 1.0597683
7.8084993 2.8605032 0.39616674 1.0622196
8.5290356 2.6684594 0.31587255 1.0640299
9.2706223 2.774848 0.36890361 1.0667356
10.083541 2.8140152 0.39167881 1.0698665
10.958785 2.5845613 0.29713905 1.0733278
11.791293 2.7671649 0.38383707 1.0763721
12.655705 2.9965973 0.49138603 1.0787867
13.454144 2.9317305 0.46827811 1.0810604
14.270428 2.8999846 0.46103644 1.0830283
14.906003 2.9064817 0.46791223 1.0842777
15.806395 2.922092 0.48156196 1.0856707
16.580797 2.9471359 0.49927887 1.086666
17.582718 2.4733715 0.55429596 1.0885464
17.605377 2.4385247 0.56095725 1.0870879
-1.9376016 3.315917 0.69878495 0.1132073
-1.1854295 3.476346 0.51127458 1.1018487
-0.29512456 3.3136895 0.50700641 1.1001489
0.34836674 3.3863606 0.59156644 0.87538195
1.3747774 3.2653971 0.62743711 1.0618544
1.8363079 3.443294 0.49165481 0.34291184
3.1183894 3.2586479 0.76448357 1.0782806
3.8395109 3.3639169 0.74513543 1.089379
4.6540041 3.3784781 0.62599063 1.0939846
5.3069887 3.4921827 0.71428353 1.0655591
5.9688487 3.3748753 0.60967511 1.0591462
6.4350758 3.2514577 0.5522536 1.0595222
7.7531643 3.6414838 0.74006265 1.0633075
8.3725481 3.4079731 0.64216071 1.0646929
8.8677645 3.2474689 0.56940466 1.065477
10.227079 3.5729167 0.72752607 1.0704396
11.041339 3.3100104 0.61756241 1.0732652
11.265535 3.2431116 0.58655441 1.0735422
12.721111 3.4039104 0.71156609 1.0813556
13.431349 3.241972 0.63069224 1.0813382
14.107994 3.7078915 0.79296649 1.0780678
14.560897 3.7009175 0.79554862 1.0793563
15.253563 3.6873672 0.79229701 1.0806608
16.031775 3.6574655 0.78826261 1.0817132
17.556213 3.407578 0.79503131 1.0850481
17.653711 3.2472267 0.69587338 0.62280703
-1.9501348 4.0742145 0.75330102 1.1039753
-0.88459289 4.4098086 0.72039557 1.1102756
-0.47191024 4.3228106 0.74019283 1.0888979
0.79264385 4.3706832 0.79944217 0.093233004
1.4237416 4.2012377 0.72293985 0.093984909
1.9574766 4.2435217 0.74331546 0.60157424
2.9629614 4.3942871 0.7917999 1.1079574
5.4291286 4.1645141 0.74219161 1.107218
6.1786475 4.1027908 0.75320238 0.6015538
6.9919882 4.057456 0.78551543 0.74230754
7.7850695 4.1057596 0.73357886 0.79154825
8.425808 4.0521278 0.77269399 0.80578452
9.2580662 4.0233917 0.77047163 0.31091282
10.077219 4.0626802 0.79322815 0.37635803
10.600387 4.0221009 0.78032738 0.72992229
11.618704 4.020175 0.78245282 0.4707126
12.52125 4.0162516 0.78940964 0.11994144
13.257395 4.0301294 0.7921775 0.41380331
13.61346 4.0073895 0.78928614 0.11651707
14.6081 4.028039 0.79621601 0.21830574
15.383602 4.1164608 0.77027619 0.05338335
17.203012 4.0723472 0.77330327 0.88775063
17.982018 4.0290842 0.76664031 0.056390963
-0.85520315 -3.2136555 0.85070562 1.0553885
-0.38506413 -3.2053392 0.82797092 0.04735975
0.02966894 -3.2651644 0.80591106 0.046930075
0.97484869 -3.2992921 0.82425237 1.056767
14.654439 -3.2847631 0.81720906 0.045614243
15.418428 -3.2184162 0.86037976 0.045363426
-2.0351779 -2.6546941 0.83338141 0.4659918
-0.9975667 -2.7972262 0.81012106 1.0821238
-0.5584265 -2.5493531 1.0746038 0.047493458
0.17728251 -2.6006727 1.0562572 0.047946282
1.4169443 -2.4814095 1.0961946 0.048100144
1.9856648 -2.6504126 0.87112409 1.0440407
2.5386381 -2.6454086 0.87182039 1.0439758
3.2406309 -2.7350082 0.84219503 1.0434656
4.2098985 -2.663465 0.88115716 1.0432339
5.1217523 -2.6378043 0.89887995 1.0427872
5.6617279 -2.642036 0.90201473 1.0424049
6.4383121 -2.8428595 0.82250327 1.0423324
7.8141217 -2.6130881 0.9361186 0.054450162
8.2939854 -2.5915966 0.93649471 0.055358708
9.357089 -2.4615946 0.97485018 0.058690984
10.002042 -2.4882646 0.95971519 0.060663816
10.452599 -2.6733284 0.87885457 0.060791913
11.568119 -2.422884 0.9761551 0.064504817
12.048422 -2.7071512 0.84795833 0.064486854
12.942518 -2.7880793 0.82297087 0.06447275
13.734097 -2.4834876 0.95184743 0.064554304
14.481455 -2.5091093 0.95029521 0.064519688
15.555031 -2.8633413 0.86005342 0.095750228
16.605219 -2.4190674 1.0273229 0.09477137
17.278616 -2.64081 0.93153143 0.11783788
17.641281 -2.6529748 0.81975532 0.24024893
-2.0744371 -1.6638404 1.1358922 0.048252515
-1.1427464 -2.1217582 0.99622995 0.98024285
-0.39818484 -1.667635 1.4104955 0.04877796
0.39516339 -2.1984305 1.2043669 0.04825069
1.2102568 -1.9034059 1.3115652 0.048986476
1.920096 -1.7151144 1.322058 0.62978578
2.5942483 -2.0700724 1.1413689 0.92027098
3.4373524 -2.0050521 1.1653771 1.0450873
4.2558379 -2.2009544 1.0849986 1.0444285
4.8840714 -1.8712832 1.236155 1.0451772
5.6341381 -2.0025826 1.1836808 1.0453215
6.4339414 -2.1819422 1.1101699 1.0453215
7.6412544 -1.8247269 1.2672474 0.054353938
8.1090422 -1.9036343 1.2314458 0.05524943
9.3269472 -1.7576621 1.2707282 0.058736909
10.026787 -1.7722635 1.261534 0.060968969
10.728765 -1.63841 1.3084015 0.064474031
11.699026 -1.6314421 1.3109505 0.067871884
12.028036 -1.805827 1.2377789 0.06815473
12.868805 -2.2489643 1.04197 0.067728877
14.272004 -1.7632909 1.2879759 0.091416657
14.971543 -2.0560501 1.1722237 0.093075372
15.801274 -2.0485075 1.1697388 0.093597017
16.50901 -2.1881795 1.113219 0.094215885
17.067442 -1.8651162 1.233233 0.093709655
17.81031 -1.9213607 0.92853844 0.35475433
-2.1028311 -1.2742637 1.2211607 0.313068
-1.0630155 -1.2938824 1.4562452 1.0803801
-0.42355809 -1.2392137 1.5736325 0.049373619
0.12348816 -1.3378438 1.5316689 0.049373686
1.4734851 -1.2225144 1.5671177 0.05059053
1.7389086 -1.2140173 1.5688684 0.074482888
2.810535 -1.2411523 1.5135384 0.8126539
3.7085924 -1.2097459 1.5342722 0.60342312
4.3611531 -1.3385551 1.4667618 1.0465622
4.8540764 -1.4335115 1.4228466 1.0467117
5.6704431 -1.162519 1.5634403 0.052417859
6.4946566 -1.3192846 1.5027739 0.0812051
7.3212481 -1.0674002 1.5921168 0.05415535
8.071846 -1.053128 1.5883899 0.055180851
9.2220497 -1.1562843 1.5237944 0.058783554
9.9689131 -1.0773543 1.5518589 0.060946565
10.809044 -0.97542554 1.5875163 0.064486273
11.673233 -0.99122727 1.5802066 0.067681871
12.094864 -0.97457772 1.5817498 0.072902545
13.521848 -1.2776612 1.4765053 0.088511638
14.184168 -1.3511231 1.4475802 0.089895442
14.889828 -1.1664549 1.5126151 0.090294868
15.861847 -1.3162926 1.4504327 0.091648683
16.640968 -1.4497017 1.3942099 0.092548452
16.837734 -0.98191351 1.5726413 0.091639131
17.717934 -1.217517 1.1514736 0.3734206
-2.1554248 -0.36407804 1.2433242 0.58424377
-1.0835882 -0.62382853 1.5686038 1.1107033
-0.19006467 -0.57190776 1.5597489 0.060198352
0.23418719 -0.68213248 1.5533507 0.060291074
1.3415511 -0.74900937 1.5120034 0.076064393
1.9776227 -0.7087605 1.5704601 0.060543049
2.842905 -0.69720626 1.5607651 0.061991286
3.6543663 -0.73017496 1.5784295 0.060829666
4.3549166 -0.70287347 1.5727406 0.0617195
5.2041864 -0.74800915 1.5842309 0.061645895
5.8520374 -0.76508534 1.5754523 0.063326746
6.7522326 -0.76611215 1.5789139 0.065185621
7.5670671 -0.77777129 1.591502 0.064685464
8.5128994 -0.77335107 1.5773183 0.072265685
9.133482 -0.76326901 1.5948741 0.10216634
10.131408 -0.7791183 1.596591 0.19428082
11.081226 -0.74830604 1.5909576 1.0376796
11.822277 -0.76425278 1.5852586 1.0402069
12.281357 -0.76279843 1.5756516 1.0399437
13.26188 -0.71488917 1.5839803 1.0388482
14.087032 -0.78066885 1.5929725 0.071132571
15.015566 -0.75132722 1.585865 0.071234114
15.782824 -0.77085507 1.5884197 0.067115113
16.315903 -0.7220428 1.5805054 0.06874036
17.516136 -0.6900205 1.5632904 0.083538793
17.733742 -0.41021425 0.97790182 0.53738528
-2.1879611 0.25948432 1.505044 0.5016697
17.593372 0.12256295 1.5890607 0.087714776
17.69088 0.4066917 1.2427231 0.44475183
-2.2239783 1.1213951 1.0417602 0.51667547
17.651131 1.1452719 1.3110082 0.39808899
-2.2855902 2.3828287 1.0756197 0.48886222
17.584274 2.3552198 1.5593507 0.62351167
17.615219 1.889033 1.0502977 0.69560224
-2.3108778 2.7847431 1.3997296 0.78621918
-0.25487015 2.8657312 0.83220208 1.0808272
0.43457219 3.110471 0.84147167 1.0738719
1.1269556 3.138623 0.90107274 1.0799494
1.9354815 3.1339788 0.85526502 1.0818295
2.8132346 3.124459 0.85937041 1.0716137
3.4941196 3.1431999 0.85971963 1.0735214
17.557886 3.0854011 1.079483 1.0873435
17.605366 2.4571381 1.3351121 0.78715634
-2.2498341 3.2443793 1.0823338 0.062690854
-1.0190499 3.8663831 1.4521585 0.053519879
-0.3596015 3.5482302 0.96098137 0.59063661
0.36712971 3.5638235 0.94583881 1.0335798
1.522994 3.9011283 0.88983268 0.11166524
2.1115639 3.6574149 0.88242263 1.0631233
2.8655784 3.8826895 1.0841221 1.0661393
3.4397011 3.9150944 0.95762289 1.0610739
4.1481681 3.9882133 0.83876383 1.0563904
5.2990294 3.8849156 0.86463153 0.11516465
6.1109838 3.7677326 0.92804253 1.0659366
7.0976 3.9200802 0.90747631 1.0634429
7.2435584 3.9601922 0.89594036 1.0624592
8.10425 3.8215804 0.81531602 1.0606399
9.3422813 3.9911284 0.90158212 1.067035
9.6560764 3.7878349 0.81882668 1.0687217
10.46209 3.7994189 0.81033373 1.0661135
11.752523 3.957078 0.92477012 1.0712121
12.704105 3.9930551 0.92455983 1.0755465
13.439789 3.9890065 0.93167824 1.078939
13.816368 3.9930098 0.93694007 1.0798712
14.913405 3.9837704 0.94225657 1.0816944
15.638468 3.9489172 0.93468595 1.0823623
16.059769 3.9780169 0.94861215 1.0829732
17.524185 3.7276077 1.0633514 1.08636
17.611668 3.4608598 1.3182148 0.74464047
-1.9255772 4.2090816 0.82634902 0.092483021
-0.87930268 4.0197172 1.1984065 1.0542266
-0.53389627 4.0457878 1.1761835 1.0535703
0.66670471 4.1321325 1.1334622 0.80438757
1.0140765 4.1465521 1.1399169 0.90295029
1.8741182 4.1235919 1.272049 0.45953861
2.8090277 4.1406345 1.3582132 0.51276726
3.466615 4.259861 1.0707999 0.29512411
4.1000748 4.1423674 1.54398 0.6117965
4.8959928 4.3765974 1.1425333 1.0590334
5.852788 4.3682938 1.2907611 1.0605395
6.5781908 4.3298998 1.2425567 1.0617638
7.4489374 4.4426355 1.3368393 1.0636506
8.1925564 4.4407415 1.3530715 1.0653193
8.9817934 4.2678914 1.1954317 1.0671686
9.8014259 4.5796022 1.3405521 1.0694427
10.771812 4.5196238 1.1504643 1.0720551
11.425039 4.3067312 1.060895 1.0739033
12.282548 4.4262357 1.1906544 1.0760875
13.228207 4.3273883 1.1363657 1.078498
14.028259 4.3814731 1.2288866 1.0800992
14.753024 4.4227567 1.2840673 1.0813969
15.605213 4.1646771 1.0299129 1.0832057
16.335989 4.2548418 1.0750809 1.0841243
17.499544 4.1930456 1.2955078 1.0855825
17.60873 4.0979619 1.4301844 0.83515322
15.580971 4.8134418 1.5829259 1.0821273
16.028168 4.8520145 1.4809444 1.0818715
-1.9207747 -0.94869643 1.6165354 1.0895481
-0.91804969 -1.0422162 1.7212631 1.0525301
-0.56667715 -0.849805 1.7244153 0.04987409
0.58325911 -0.93575108 1.732296 1.0492246
1.4729068 -1.0530756 1.6514785 0.55032313
2.2448211 -0.84351724 1.667642 1.0400851
2.5043745 -0.87126923 1.6558976 1.0476769
3.7228489 -0.81193757 1.6911486 1.0483824
4.4119992 -0.88732457 1.6817391 0.052484378
4.8506856 -0.97375035 1.6414547 0.052412599
6.2607527 -0.81129307 1.6930299 0.054157466
6.4248009 -0.8315028 1.685662 0.054265093
7.3128886 -0.83653623 1.6738024 0.05513522
8.2636108 -0.94350535 1.6236608 0.056414921
9.3161535 -0.86249131 1.6417775 0.059355244
10.041862 -0.88739038 1.6237165 0.061927035
