# .PCD v0.7 - Point Cloud Data file format
VERSION 0.7
FIELDS x y z intensity
SIZE 4 4 4 4
TYPE F F F F
COUNT 1 1 1 1
WIDTH 1118
HEIGHT 1
VIEWPOINT 0 0 0 1 0 0 0
POINTS 1118
DATA ascii
7.7343111 1.2867864 -0.3043817 1.056916
8.2090988 1.5492539 -0.18602617 1.0579729
8.5626183 1.4837742 -0.21730407 1.0579313
9.0571613 1.4200498 -0.2414259 1.0590235
9.3735371 1.2918169 -0.27478218 1.0566037
9.7154236 1.2691827 -0.25794914 1.0706447
10.247932 1.4949315 -0.17944705 1.0570002
10.720237 1.4961035 -0.24063073 0.73201907
10.970946 1.3327851 -0.3204354 1.0454431
11.370615 1.3719208 -0.29599506 1.0351558
11.787285 1.3523463 -0.29214036 1.0537541
12.148684 1.3866976 -0.23227194 1.0735922
12.599287 1.3885891 -0.25576258 1.0637363
13.068092 1.5385293 -0.11982457 1.0812668
13.447448 1.5028136 -0.11590347 1.0866913
13.693225 1.4044164 -0.15476635 1.0872371
14.127666 1.3457034 -0.1981308 1.0868301
14.623041 1.3833992 -0.21276623 1.0888953
15.091418 1.5671866 -0.08237724 1.0849023
15.37289 1.4612348 -0.12461865 1.0852764
15.922548 1.5793111 -0.052180007 1.087069
16.245214 1.5696528 -0.044640213 1.0875916
16.693813 1.54222 -0.047030743 1.0882032
17.032078 1.4481063 -0.082772918 1.0884674
17.410666 1.3470018 -0.12154396 1.0887339
17.697945 1.254361 -0.1569033 1.0889593
18.004009 1.4874274 -0.10125381 1.0624912
-2.2013419 1.6882099 -0.14669712 0.48797843
-1.7726882 1.688333 -0.27770436 1.0396903
-1.3294041 1.7599926 -0.23932752 1.0431939
-0.93414819 1.8185364 -0.20817804 1.0435286
-0.56688297 1.8820262 -0.16429627 0.99464762
-0.17962337 1.8219093 -0.10242307 0.54458827
0.15709993 1.9795346 -0.11716838 1.0420065
0.60693783 1.9582794 -0.075825639 0.7324549
0.95763111 1.8015459 -0.045195553 0.060961455
1.4367481 1.8496665 -0.078040116 0.49510702
1.9146042 1.8189496 -0.054021254 0.076405153
2.0278904 1.7470095 -0.079215661 0.046041012
2.596065 1.8736378 -0.040154405 0.046283152
2.9401555 1.7397348 -0.11960502 0.32341206
3.3718159 1.7741501 -0.1059342 0.31798062
3.8261313 1.82895 -0.12264227 1.0400357
4.2609863 1.7251354 -0.12348948 0.075271308
4.5320644 1.8691161 -0.072815612 0.17665479
4.9609666 1.673224 -0.15353069 0.051457137
5.2616611 1.7042398 -0.14392787 0.051077984
5.7749796 1.9052694 -0.058321405 0.55708933
6.2311974 1.8175608 -0.10183542 0.49140179
6.6249447 1.8388755 -0.076325133 1.0538764
6.902956 1.8727673 -0.04360722 1.0578189
7.2325821 1.8499985 -0.051727079 1.0587357
7.876358 1.6926758 -0.12864314 1.0012227
8.1808891 1.7041106 -0.10423371 1.0559118
8.6577282 1.6807532 -0.09668275 1.0701301
8.9782448 1.6783063 -0.10568789 1.0750211
9.4238605 1.7859752 -0.038320519 0.8185854
9.8176775 1.6887466 -0.051721007 1.0860384
10.165822 1.80601 -0.043913648 1.0819621
10.493116 1.8280329 -0.056265309 0.96042871
10.877213 1.8986564 -0.078810252 0.61718541
11.332108 1.7665493 -0.10175127 1.0666835
11.90675 1.7650949 -0.079612404 1.067275
12.255089 1.7892239 -0.070901155 1.0663619
12.68307 1.7661908 -0.10133497 1.0566599
13.028323 1.6682456 -0.057683788 1.0841695
13.514613 1.8166764 -0.061041173 1.0594468
13.801484 1.7631474 -0.067375787 1.0796056
14.241561 1.7272795 -0.057099778 1.0722532
14.656074 1.7331831 -0.014896974 1.0765558
14.996661 1.7084737 -0.014926404 1.0852983
15.567228 1.6796708 -0.020529494 1.0855033
15.808159 1.6622319 -0.013726059 1.0870816
16.113182 1.6578354 -0.010043823 1.0876114
16.431509 1.6367993 -0.018813662 1.0880898
17.085239 1.7339139 -0.032498922 1.0888906
17.274002 1.7291989 -0.020137776 1.0886496
17.632305 1.6514392 -0.041533634 1.0890658
18.008877 1.78941 -0.25724226 0.055654023
-2.143827 2.2540898 -0.014377886 1.0447972
-1.9698184 2.2146549 -0.035301864 1.0448589
-1.4087827 2.2602482 -0.0081774378 1.0449914
-0.98064089 2.1733837 -0.037253708 1.044755
-0.76623899 2.2163434 -0.016831342 1.0453634
-0.2510879 2.2215321 -0.0071073519 1.0456141
0.11800648 2.0784841 -0.06425935 1.0152476
0.6271286 2.0575361 -0.075212069 1.0443041
0.85111845 2.0491135 -0.075727358 1.0452614
1.3048768 2.0994925 -0.010125836 0.71366978
1.734521 2.1091614 -0.0060987533 0.78204256
2.0873895 2.1168237 -0.021484492 1.0225344
2.7007656 2.112762 -0.010601839 1.0469806
3.1102664 2.102787 -0.0083250869 1.0474956
3.45719 2.0446897 -0.014800099 0.66547692
3.7689018 2.0258491 -0.0054408605 0.39703447
4.2435379 2.0335021 -0.0070330845 0.091340259
4.4917011 2.0210586 -0.01112188 0.23673147
5.0662279 2.0460086 -0.0070980247 0.054491468
5.4351521 2.0294352 -0.015421104 0.4358457
5.6632204 2.0635667 -0.011685057 0.11426417
6.1746941 2.0821331 -0.03830348 0.55402666
6.4290595 2.065134 -0.10228305 0.05488807
6.896657 2.0664163 -0.017717371 0.96402836
7.4867544 2.071413 -0.017022427 0.85186684
7.8734264 2.0331669 -0.021445867 0.11654048
8.3395262 2.037632 -0.01023506 0.087562546
8.5583763 2.034966 -0.026115689 0.19002602
9.0925312 2.0558839 -0.05054697 0.5190708
9.4435425 2.0447035 -0.016838124 0.05944474
9.8322487 2.0174379 -0.031721383 0.047963031
10.190405 2.0726843 -0.016633878 0.064446524
10.572903 2.0851941 -0.021208599 0.18528032
11.024393 2.0835228 -0.030112805 0.051098712
11.366811 2.074698 -0.020221189 0.5942843
11.847546 2.1003532 -0.027239051 0.30306941
12.239483 2.0594606 -0.012304613 0.80449384
12.516448 2.0561256 -0.010484272 0.84591174
12.942528 2.2065535 -0.016416803 0.059402067
13.374623 2.2427049 -0.013079043 0.054526512
13.830815 2.2638612 -0.016530663 0.054931872
14.185766 2.2656531 -0.01746485 0.055140644
14.680155 2.1981459 -0.014093412 0.050264809
15.007818 2.0361629 -0.041770309 0.046345714
15.368901 2.0496247 -0.026917953 0.044637967
15.773739 2.0441391 -0.035130285 0.045453012
16.090946 2.0298603 -0.018948311 0.086270973
16.551044 2.0400262 -0.018943343 0.088008836
16.98789 2.0486989 -0.0061761467 0.46969908
17.522633 2.0872464 -0.026512131 0.095899999
17.703272 2.0478568 -0.026437715 0.4720425
18.029175 2.1269579 -0.055001475 1.0438128
-1.7532334 2.4862828 -0.024975887 0.60070485
-1.4184935 2.5204124 -0.030250737 0.60187966
-1.0258496 2.5558407 -0.032780644 1.1109962
-0.50147676 2.4295893 -0.039064348 0.60164666
-0.21780413 2.4089556 -0.036163222 0.094486117
0.14185709 2.5296228 -0.037318766 0.58483708
0.97642219 2.5175536 -0.035381302 1.1117795
1.3654208 2.4909837 -0.020078886 0.58363092
1.7200785 2.4082654 -0.0079043573 0.094987392
4.4326329 2.4640832 -0.0172191 0.056140333
9.9825592 2.4044032 -0.017569494 1.0404762
10.121369 2.4398618 -0.016482111 1.0395364
10.977929 2.4633002 -0.027511753 1.0399749
11.455058 2.4306417 -0.032098718 1.0397871
11.643755 2.4344411 -0.018824033 1.0413533
12.214522 2.41185 -0.072259009 1.0378447
12.602308 2.5176253 -0.061303012 1.0364661
13.101402 2.5275569 -0.031264503 1.0370359
13.397008 2.4658294 -0.027474545 1.0403823
13.901892 2.5561266 -0.017443484 1.0394738
14.385332 2.4181771 -0.064251095 1.0403509
14.48571 2.4193945 -0.10912178 1.0364661
14.992239 2.5381503 -0.016350266 1.0395207
15.354059 2.5075428 -0.071040496 1.0373433
15.74803 2.4757276 -0.034777995 1.0402569
16.19413 2.4667087 -0.028092071 1.041698
16.560669 2.5419362 -0.063986547 1.035965
16.984196 2.5241332 -0.06086218 1.0383458
17.416962 2.5725417 -0.017900402 1.0412124
17.97868 2.4937904 -0.069653787 1.0378029
18.01701 2.4839673 -0.054852542 1.0385965
17.154428 2.811832 -0.010343982 1.0353384
17.938896 2.8217909 -0.010716402 1.0349624
-2.0867188 -5.2410445 0.0033748306 0.047618866
-1.6920537 -5.2430849 0.066062242 1.0596802
-1.5005207 -5.2499208 0.10488323 1.0588343
-1.0920711 -5.3334312 0.060081709 1.0586462
-0.62673616 -5.4067154 0.011010694 1.0625943
-0.27977735 -5.2879667 0.0096583627 1.0583963
0.13599449 -5.2459145 0.055395786 1.0578947
0.47160888 -5.2716942 0.033759028 1.0576439
0.84692001 -5.2166901 0.018500464 1.0581455
16.30917 -5.2128105 0.0063316738 0.045363426
17.231205 -5.228622 0.016292959 0.04511261
17.798725 -5.2264738 0.050229415 0.045613766
18.133793 -5.2401438 0.010123552 0.55137825
-2.0500882 -4.9292812 0.12584108 0.81788838
-1.8501329 -4.8959656 0.053162761 0.5503881
-1.3152432 -4.9518366 0.11182107 0.55128902
-1.0623616 -4.9133587 0.11148054 0.2982398
-0.67411792 -4.9063053 0.055732235 1.0520127
-0.33088782 -5.1321993 0.0098622805 0.061963819
0.17060104 -4.9241071 0.094755843 0.16981316
0.56445885 -5.0238643 0.037049055 0.2989465
1.0121355 -4.9100399 0.070939258 0.37275895
1.3243132 -4.9239864 0.06539353 0.28594756
1.7706821 -5.0557051 0.021241475 0.071559019
2.0809331 -4.9944792 0.049022682 0.57125598
2.5779283 -4.9930835 0.054990768 0.22245193
2.8642626 -4.9717045 0.036795489 0.57180452
3.8004799 -4.9022927 0.015098194 0.43641919
4.1613331 -4.8802357 0.017062036 0.55798268
4.6039734 -4.8963022 0.035292245 0.57322979
5.0170212 -4.8765588 0.021298405 0.24349752
5.264071 -4.8063617 0.047206983 0.050877571
5.6714516 -4.8115396 0.029361796 0.051252842
6.1457138 -4.8216848 0.026722249 0.052224278
6.6121197 -4.8093834 0.013135584 0.051629066
6.9923334 -4.8139439 0.011137733 0.052239835
7.3206306 -4.8454857 0.011612967 0.050409228
8.0424709 -4.8636942 0.0177487 1.0526314
8.9157839 -4.9199543 0.029611241 1.0537591
9.8191509 -4.9081745 0.038021352 1.0537591
10.143349 -4.8971577 0.029668299 0.55338335
10.555416 -4.8585596 0.013502609 0.55172312
11.498024 -4.8014808 0.036725443 0.050877571
11.74391 -4.8830452 0.04372324 0.55275679
12.097896 -4.9245625 0.0037208572 0.050125122
12.575092 -4.835218 0.0076794615 0.051441431
13.090174 -4.8587379 0.024397645 0.050125793
13.223379 -4.8331394 0.058358267 0.098644942
13.787994 -4.8470974 0.035615224 0.43276191
14.147954 -4.8973022 0.012449275 0.60203016
14.490616 -4.8736591 0.021765027 0.097794369
14.848772 -4.8466539 0.024039175 0.09690813
15.388515 -4.8226304 0.025844473 0.12768261
15.641365 -4.8136249 0.028138695 0.098226368
16.216928 -4.8358665 0.014052536 0.12629512
16.612667 -4.822567 0.046413478 0.5958845
16.92363 -4.8712769 0.041296519 0.70124596
17.317219 -4.8293781 0.035157222 0.59283227
17.691578 -4.8180132 0.087798655 1.0979747
18.039469 -4.8354626 0.085422188 1.0938053
-2.03511 -4.5543346 0.033082888 0.52049458
-1.8623013 -4.6153612 0.18325099 0.22453171
-1.4088488 -4.4942245 0.12505482 0.58085191
-1.0017725 -4.4838591 0.082923912 0.85680604
-0.63305473 -4.6252966 0.16170371 0.30495197
-0.24179672 -4.4984245 0.076252662 0.83825779
0.25937381 -4.4332471 0.070712529 1.040699
0.48540676 -4.4707685 0.056369975 1.0407281
0.83788621 -4.5843077 0.0051412415 1.0407897
1.2446297 -4.5648451 0.016458221 1.0414786
1.6460749 -4.61621 0.010600024 1.0416176
2.259728 -4.482893 0.14317748 0.64337701
2.5127759 -4.6482038 0.17934966 0.049956538
2.9069915 -4.4808431 0.10768099 0.79208028
3.4909763 -4.4979568 0.050330468 1.0074201
3.7307539 -4.51614 0.066944756 0.9888199
4.2502928 -4.5795841 0.15523224 0.22259766
4.6837482 -4.5187902 0.11221774 0.84392059
4.9619856 -4.6052408 0.13583639 0.071204022
5.4457974 -4.5904346 0.14281179 0.05057456
5.7254696 -4.5485415 0.1267942 0.46581638
6.139255 -4.5484276 0.14367554 0.051366881
6.491888 -4.4534435 0.15049821 0.053805608
7.0290489 -4.6012945 0.10993208 0.05226963
7.3886557 -4.54667 0.088235393 0.79619449
7.7418332 -4.6377487 0.079080731 0.053055461
8.1077023 -4.7395067 0.043630101 0.053291254
8.572731 -4.4940457 0.13048473 0.053997573
8.9772959 -4.5748024 0.090341903 0.054384947
9.4522161 -4.5367341 0.082496285 0.056424689
9.7449837 -4.5439281 0.075769715 0.056608859
10.121164 -4.4920187 0.069493353 0.065036871
10.495916 -4.4714847 0.080424458 0.05938074
10.916985 -4.5453882 0.019081794 0.063825428
11.363575 -4.616437 0.014962425 0.059900664
11.817333 -4.4960546 0.073965855 0.060461901
12.196963 -4.496913 0.049578253 0.065506525
12.615755 -4.6190395 0.022962565 0.059110545
13.082493 -4.6574068 0.073137224 0.07941252
13.400031 -4.430963 0.1026924 0.060501993
13.694038 -4.665566 0.11453533 0.098643713
14.268306 -4.5701718 0.1438601 0.09735506
14.449485 -4.7423649 0.077521466 0.097488821
15.023114 -4.5821195 0.12895961 0.096866429
15.240336 -4.7237844 0.070149556 0.096859246
15.959286 -4.6522155 0.086806983 0.096443072
16.270977 -4.5875349 0.1625288 0.84817898
16.469538 -4.5422468 0.18760079 0.94540298
16.99996 -4.4825706 0.20747675 0.78331
17.417568 -4.424161 0.26873362 1.097753
17.649574 -4.5452805 0.21432813 1.0675609
18.114147 -4.4888172 0.15494904 0.40546808
-2.0088944 -4.0677099 0.13570416 1.0248196
-1.7026004 -4.2197237 0.12279287 0.98378819
-1.3384804 -4.2202764 0.1297577 0.96970624
-0.86859453 -4.2525587 0.12461061 0.97829199
-0.46709019 -4.0485163 0.16236153 1.0346251
-0.18026879 -4.2347188 0.093112141 1.0348254
0.14000428 -4.3129921 0.082605951 1.0368814
0.65306681 -4.3181176 0.10765243 1.0391524
0.85430837 -4.3484707 0.12277442 1.042231
1.3607798 -4.3232727 0.11903107 1.0405843
1.761245 -4.2312708 0.18059576 0.91824901
2.1553493 -4.0999117 0.2293025 1.0296547
2.5152864 -4.264575 0.15277991 1.04009
2.9684992 -4.3187504 0.13434106 1.0394089
3.3489127 -4.3445792 0.11990212 1.0381303
3.7533774 -4.2321124 0.26676655 0.59341592
4.205287 -4.1147494 0.26190081 0.84451318
4.7288818 -4.262989 0.22751369 0.55392522
4.9902062 -4.1308398 0.27339035 0.80339444
5.4605265 -4.2069774 0.22224768 0.85475492
5.7745647 -4.2714524 0.22725046 0.54738343
6.1020699 -4.1480484 0.28747776 0.053057998
6.5777769 -4.2135372 0.22841318 0.7935524
6.9773617 -4.1947756 0.23992373 0.054520842
7.4247799 -4.1375422 0.27959651 0.054008245
7.817524 -4.229856 0.24089402 0.055000596
8.1741896 -4.1611624 0.26883137 0.054825626
8.5165071 -4.1454444 0.24986586 0.056276113
8.9399652 -4.1882029 0.23339804 0.056159675
9.4301071 -4.187376 0.2348707 0.056510516
9.7638416 -4.1843214 0.21926659 0.058032684
10.297702 -4.2386985 0.1878491 0.058857448
10.528393 -4.2488852 0.15433741 0.061068416
11.058367 -4.2893701 0.11368297 0.073878542
11.416807 -4.2624588 0.13869885 0.065104857
11.85646 -4.2631731 0.1033463 0.072846442
12.258405 -4.2293673 0.17956901 0.0621709
12.578817 -4.2812777 0.1285058 0.067306437
13.010757 -4.1737309 0.3080101 0.59935713
13.414694 -4.1277637 0.33139968 0.097012378
13.882303 -4.1548772 0.31292772 0.096780248
14.053844 -4.1832218 0.301669 0.096705079
14.697722 -4.1848679 0.29057992 0.09635371
14.822891 -4.2723994 0.25392705 0.096364707
15.378016 -4.0458136 0.33425841 0.095820829
15.665023 -4.3465905 0.21166623 0.096107453
16.305473 -4.0267844 0.32854044 0.12266011
16.543678 -4.3237081 0.23859194 0.49250564
16.830807 -4.3399224 0.19018069 0.14580356
17.406752 -4.2902298 0.29297188 0.847314
17.7777 -4.2776957 0.27161577 0.59673959
18.03339 -4.3328323 0.31045082 1.0455288
-2.0875843 -3.8371491 0.16419443 1.0357569
-1.8038225 -3.8516004 0.24378854 1.0383675
-1.237649 -3.6226244 0.34384012 1.0358651
-1.0363233 -3.7355118 0.29650724 1.0354767
-0.6882776 -3.9050479 0.20715728 1.0342267
-0.26559433 -3.8576958 0.30424559 1.0402677
0.11710519 -3.8662219 0.29704118 1.0396724
0.48384017 -3.8223524 0.31443611 1.0263081
1.0346078 -3.7907882 0.3178539 0.94449401
1.3966863 -3.7810619 0.36266762 1.0108213
1.7326825 -3.9079375 0.29870039 1.0394638
2.232666 -3.9479358 0.29217583 1.0405836
2.5583799 -3.900146 0.31735665 1.0404158
2.878788 -3.9386668 0.31389201 1.0191779
3.5033841 -3.822453 0.38107377 0.79837596
3.7002671 -3.921555 0.36677605 0.79962111
4.1366434 -3.9280233 0.34131083 0.91907078
4.6066751 -3.8510876 0.35387963 0.55103803
4.9278879 -3.9171348 0.36758599 0.053545047
5.341732 -3.9565554 0.37649107 0.052397087
5.8267727 -3.9321117 0.33143872 0.54979163
6.2290535 -3.9517841 0.33543086 0.54777455
6.453054 -3.9387245 0.33792511 0.05558344
6.9864311 -3.9296985 0.33583635 0.056210019
7.3569546 -3.8057289 0.36401403 0.058166552
7.8077145 -3.9134436 0.36966336 0.054536778
8.0552788 -3.8221035 0.37769929 0.057207357
8.4916458 -3.8805931 0.37046754 0.055768926
8.8838329 -3.9521363 0.3439101 0.056015082
9.3698444 -3.8777437 0.35188293 0.058006532
9.8700352 -3.8757708 0.33281532 0.063453205
10.185222 -3.842278 0.34868541 0.060474578
10.528224 -3.828351 0.32880831 0.0624559
11.020782 -3.9221203 0.29460585 0.064875774
11.270859 -3.8543763 0.28636581 0.083028659
11.934233 -3.8816798 0.2952795 0.066915415
12.179752 -3.8988528 0.33117607 0.058234423
12.626747 -3.8421326 0.33158502 0.061363332
13.048615 -3.9706051 0.36169738 0.088767275
13.3979 -3.9414105 0.38881063 0.092471167
13.765585 -3.9573374 0.38632214 0.095209703
14.314122 -3.9500897 0.38029993 0.094842747
14.499598 -3.9345663 0.39055347 0.095978141
15.044925 -3.9440887 0.35430539 0.08607398
15.328569 -3.9098902 0.38820916 0.095357656
15.637978 -3.9635549 0.3557623 0.094743028
16.247124 -3.9632821 0.35288349 0.0952034
16.505875 -3.9663105 0.37095457 0.34535158
17.128515 -3.9478397 0.35752556 0.090398878
17.305687 -3.8925762 0.36470592 0.094736069
17.951271 -3.8759756 0.37884793 0.90870476
18.006441 -3.7313919 0.32064599 0.56169152
-2.0417905 -3.5067048 0.33150092 0.61369401
-1.7781024 -3.525948 0.36074209 0.63005424
-1.4149146 -3.5279794 0.38645029 1.0361303
-1.0701873 -3.5253961 0.33765537 0.059899103
-0.57370007 -3.3263235 0.34164542 0.069989979
-0.30817932 -3.5449193 0.3382329 0.21830243
0.26158544 -3.4168742 0.37128156 0.07286837
0.59984195 -3.4997888 0.34539807 0.063099667
1.0987897 -3.5516262 0.35398525 0.058587916
1.3900087 -3.4351525 0.38192117 0.061715748
1.8919671 -3.5193222 0.35325634 0.061664589
2.2576041 -3.4168816 0.35957229 0.065014213
2.6942456 -3.499099 0.36946821 0.06304533
2.955677 -3.5356207 0.38266623 0.060594164
3.4457164 -3.5709033 0.37437725 0.060310647
3.7091169 -3.5427065 0.38588083 0.060946226
4.1683159 -3.5399299 0.33642107 0.064806841
4.5977221 -3.5776796 0.3809858 0.061102919
5.1155949 -3.5241394 0.37419409 0.064342417
5.386652 -3.495142 0.34711999 0.067022473
5.7416019 -3.5333271 0.36956573 0.068922222
6.170125 -3.5365734 0.38057792 0.071576819
6.5830898 -3.5481453 0.36567789 0.066712156
6.8889055 -3.5343533 0.38398221 0.064987883
7.400126 -3.5515168 0.39784032 0.078947306
7.7944469 -3.5726614 0.36690885 0.070927262
8.6856585 -3.5742803 0.39201957 0.066792011
9.4069462 -3.5836711 0.39143789 0.065288067
9.7833033 -3.5676682 0.39587536 1.0433588
11.532605 -3.568707 0.38664711 1.0428572
11.63986 -3.5688624 0.39404804 1.0424809
12.139622 -3.5747399 0.38951921 0.5618422
13.443188 -3.4974902 0.38834077 1.0423555
13.807618 -3.5499091 0.37809336 0.31217152
14.060025 -3.5831656 0.36153042 1.04151
15.036375 -3.5162945 0.36378631 0.068859696
15.386916 -3.4979153 0.37652689 0.067523018
15.809693 -3.47594 0.39245445 0.062476367
16.22295 -3.5539901 0.37238812 0.068272136
16.559132 -3.5027246 0.35804415 0.071061194
16.941391 -3.502718 0.36039829 0.070018634
17.465311 -3.4646611 0.38971972 0.066684119
17.974728 -3.5602763 0.38013715 0.10963228
18.006557 -3.4888582 0.36172724 0.082208231
-2.0575557 -2.9950538 0.35356718 0.055733513
-1.9918976 -2.996172 0.36834544 0.085522339
1.9362615 -3.1561465 0.39773875 0.068671644
17.895691 -2.9400806 0.16974151 1.0191481
18.016182 -3.1552496 0.38845921 0.31177944
-2.0496585 -2.632112 0.39101109 0.061403513
-1.9683089 -2.6982131 0.34026128 0.086961746
17.877239 -2.5654612 0.14291982 0.86990786
-1.9484458 -2.3387077 0.17033307 0.085839748
17.847334 -2.3401766 0.16552021 0.83994007
-1.9243941 -1.7901161 0.15172006 0.087593794
17.871899 -1.8856566 0.19763145 0.11472452
-1.9000086 -1.4947169 0.2658892 0.086465836
17.904907 -1.5213143 0.31102842 0.70382476
-1.8482044 -0.88144505 0.23837557 0.59993714
17.804684 -1.0457401 0.25032005 0.70401007
18.001942 -1.0777292 0.25534958 1.0521307
-1.8626852 -0.56320548 0.26799068 0.85654777
17.783476 -0.75669551 0.23443481 0.34091508
-1.8576914 -0.39922541 0.27061263 1.0957394
17.846043 -0.26375186 0.014694066 1.1232138
-1.8907242 0.14364684 0.11320503 0.51210058
17.752373 0.21324414 0.092585713 1.1083949
-2.0928378 0.74829292 0.025610849 1.0676689
-1.9622982 0.70118034 0.027597349 1.0738837
17.734978 0.55001485 0.075569764 1.1054032
18.008522 0.78605294 0.021387717 0.044611931
-2.2394357 1.155228 0.061500624 0.049624205
-1.8914312 1.0849582 0.043696493 1.076158
-1.5643964 1.0426929 0.093821913 1.0750623
-1.0623652 1.009199 0.067132756 1.0750623
-0.20050359 1.0100574 0.027390067 1.0697761
0.23082501 1.1506331 0.078144982 1.0723059
0.54052317 1.0809662 0.029412353 1.0699244
1.1094637 1.1817129 0.087029934 1.0796995
2.331733 1.1891906 0.010135205 1.0839596
17.679642 1.0458208 0.26734391 0.65837479
18.014103 1.0327461 0.034804665 0.047419611
-2.23383 1.2407818 0.077770136 0.0732328
-1.7639952 1.4444022 0.082124874 1.0638106
-1.4617995 1.4246396 0.2217304 1.069674
-0.85553867 1.496627 0.085431784 1.0617619
-0.21182457 1.5095644 0.23742458 1.0750628
0.21405308 1.415653 0.18245497 1.070348
0.54692882 1.3241023 0.14041202 1.0703864
0.89125335 1.4562187 0.10344426 1.0655812
1.4257958 1.5390337 0.12825491 1.0660303
1.8792073 1.5459931 0.12883118 1.0669436
2.1410685 1.4592186 0.08304029 1.0706127
2.5090096 1.4663923 0.017079726 1.0685463
2.9754224 1.5133619 0.030702055 1.0640352
3.4051259 1.5288517 0.082964242 1.0669057
3.7720554 1.5593337 0.078121275 1.0766916
4.131454 1.4533925 0.041949015 1.0725979
4.6553001 1.4872013 0.03491183 1.0840228
5.0252156 1.4164131 0.023542896 1.075
5.3576384 1.5735291 0.075130254 1.0750623
6.2669477 1.5114825 0.035660759 1.0751882
6.502389 1.5494754 0.043091014 1.0710526
6.9441953 1.5531266 0.035338566 1.074984
9.2595959 1.566974 0.015630787 0.037343025
9.7448044 1.5184175 0.0033675935 0.037593842
10.301992 1.5492501 0.016747082 0.035338402
10.740647 1.5254294 0.012390324 0.035647959
11.159882 1.5481846 0.038150422 0.035840034
11.223955 1.5037413 0.010178326 0.035840034
11.762216 1.4817009 0.011000458 0.036089897
12.240179 1.4865036 0.0098456256 0.035843231
12.539881 1.5830162 0.030309014 0.03659153
13.10222 1.41378 0.0047517563 0.03659153
13.487288 1.4841937 0.032096013 0.036215544
13.709686 1.4612008 0.025096659 0.036278248
14.155748 1.5299871 0.057038225 0.036340714
14.660343 1.5486419 0.088886797 0.036842346
15.536097 1.5294333 0.11124629 0.037570179
15.89612 1.3180255 0.015632607 0.037343025
16.344336 1.4222646 0.0037927793 0.03884697
16.675901 1.4812131 0.08924894 0.037374839
17.151184 1.2944398 0.027695399 0.037594002
17.440834 1.4862729 0.077882469 0.03828311
17.72279 1.4458137 0.29708552 0.089223064
18.019533 1.5543379 0.22872876 0.047681302
-2.1823268 1.7743726 0.023757756 0.043988809
-1.8511674 1.9596673 0.1687063 1.0583497
-1.3185127 1.9137411 0.19958407 0.43854934
-0.86914206 1.9820821 0.069538534 0.044892762
-0.65065175 1.9261764 0.031864055 0.044619732
-0.10457639 1.9074414 0.18982922 0.55892938
0.16344425 1.8772743 0.15089129 0.82596731
0.64979476 1.9699371 0.033059061 0.045365445
0.88418245 1.8899772 0.14147606 1.0601883
1.3731108 1.9338267 0.080080196 0.55472791
1.7404435 1.9815881 0.027018471 0.046864547
2.2390022 1.8099735 0.087208547 1.0613445
2.5386748 1.9800235 0.0095510185 0.054648831
2.9644551 1.8671575 0.088419996 1.0599493
3.3348212 1.9193714 0.066441521 0.55461037
3.7821839 1.847544 0.091217712 1.0612054
4.2522049 1.8925605 0.057651967 1.0589347
4.6609831 1.9608433 0.083528057 1.0582256
5.0087175 1.9265525 0.076645106 1.0596151
5.3455787 1.9518379 0.068498082 1.0625495
5.885262 1.965965 0.016263442 1.0575426
6.1083288 1.8355054 0.016986281 0.94135118
6.5301051 1.9364705 0.08445362 1.0348818
6.9759569 1.775964 0.083287805 1.0675561
7.2952271 1.8384409 0.10702138 1.0640287
7.9220972 1.9074085 0.11512855 1.0543748
8.2176189 1.8638887 0.09512569 0.81984425
8.7100801 1.8488921 0.050132316 1.0568291
9.0704384 1.7309284 0.030596538 1.044421
9.3304691 1.7851653 0.0059689195 1.0131269
9.8164062 1.8714859 0.08131282 0.55960715
10.181065 1.8981563 0.035743371 0.56421518
10.66906 1.8469522 0.053141072 0.038580924
10.938918 1.9339651 0.029606083 0.041595757
11.376013 1.9528861 0.064560197 0.041033104
11.820843 1.8920329 0.062767595 0.039736241
12.343414 1.9609506 0.019101493 0.044312552
12.630131 1.8678691 0.020879382 0.82480919
12.987908 1.7858318 0.094223261 0.038222965
13.432891 1.9036331 0.018877413 0.55018008
13.790215 1.8509889 0.061476327 0.041823208
14.210599 1.9167972 0.056178614 1.0822983
14.577451 1.942173 0.0887243 1.0851395
15.139471 1.9677291 0.11731642 1.0866824
15.488047 1.874455 0.081184343 1.0870849
15.888565 1.7509787 0.032769479 1.0874698
16.054428 1.7358675 0.020677488 1.0876155
16.536007 1.9139035 0.050717756 1.088135
16.976648 1.87095 0.035791866 1.0885882
17.315626 1.9688535 0.081277326 1.0889821
17.61367 1.9529455 0.077020958 1.0892217
18.03714 1.873539 0.080375627 0.97690505
-2.2390504 2.382205 0.038444005 1.0294673
-1.6820734 2.3791652 0.2314193 0.048626911
-1.3185666 2.2311735 0.16471478 0.044928156
-1.17801 2.1685712 0.13524348 0.044863731
-0.49503356 2.3696351 0.052156031 1.0231503
-0.092219695 2.3845797 0.20921245 0.063205034
0.049516164 2.3134894 0.17249179 0.04561425
0.48047799 2.0708988 0.071154445 0.045375854
1.0897436 2.3765268 0.18175915 0.046857812
1.3406233 2.1392334 0.0204261 0.60136449
1.8301538 2.2713544 0.091474853 0.43716851
2.2515569 2.1234553 0.047804818 0.22251002
2.7017679 2.2135971 0.09189263 0.062932625
3.0070481 2.0718036 0.032972727 0.052433357
3.3712347 2.2383273 0.084592067 0.23616509
3.9021058 2.3150477 0.10552895 0.55086941
4.2113695 2.2543573 0.081035651 0.58065665
4.6439247 2.2483277 0.076282039 0.10187208
4.9324179 2.1873703 0.049221754 0.082037345
5.2404637 2.1504548 0.035915542 0.23916362
5.7764091 2.3251061 0.13140084 1.0145885
6.2489662 2.2404995 0.09848097 1.0538737
6.606205 2.2149007 0.089850083 1.0547509
6.881577 2.2036741 0.092731759 1.055702
7.2694492 2.1663318 0.10713889 1.0594949
7.8731437 2.2648354 0.19464411 1.0655258
8.0851545 2.2200952 0.17828728 1.0642111
8.6134872 2.1480513 0.2120868 1.0761266
9.0579433 2.1965785 0.20708877 1.0716397
9.3584967 2.1664963 0.14613715 1.0701631
9.8382149 2.2907958 0.17750765 1.0873771
10.241929 2.1894689 0.12237541 1.0884721
10.652668 2.1702635 0.12071162 1.0733012
10.954763 2.3087673 0.068645708 0.050372638
11.482462 2.2542462 0.055562288 0.57988763
11.685759 2.3264999 0.092582658 0.91636664
12.338223 2.2562711 0.083463721 1.0484045
12.625525 2.3130913 0.1228956 1.058354
13.04355 2.2790504 0.16802907 1.0812364
13.481312 2.3351579 0.24858597 1.0832778
13.850586 2.2306218 0.20759392 1.0840822
14.129334 2.2561755 0.22814828 1.0852375
14.614616 2.0733492 0.13886517 1.0859745
15.005906 2.0684514 0.13297591 1.08638
15.26304 2.1578894 0.1457499 1.085386
15.751705 2.081568 0.10309368 1.0884769
16.303093 2.0827327 0.12093777 1.0880055
16.505503 2.3345294 0.26609242 1.0841573
17.123795 2.3830895 0.30440712 1.0846484
17.577599 2.3841767 0.32817435 1.085447
17.608961 2.1499639 0.19832042 1.0855174
18.024448 2.3781261 0.26186055 1.0581368
-2.322547 2.7294912 0.39272326 0.060984775
-1.8903816 2.5059996 0.27834594 0.047065735
-1.3825881 2.7492754 0.20887913 1.0454839
-1.1421518 2.7634847 0.2179648 1.0456102
-0.52676553 2.6445758 0.29494199 0.17090003
-0.37900507 2.5579612 0.2763668 0.04687801
0.15411998 2.7768431 0.24305338 1.046366
0.66868132 2.6554132 0.29706025 0.05150485
0.98101854 2.4487929 0.2124323 0.049938731
1.5324361 2.7191081 0.30819541 0.06475202
1.7419233 2.5672076 0.24565761 0.04812425
2.337687 2.7740593 0.29659492 0.57957208
2.4988363 2.5396597 0.22315258 0.06019856
3.0650568 2.5572407 0.21959774 0.11280842
3.5359855 2.639688 0.24698678 0.049476296
3.6171105 2.5721335 0.21851531 0.049375109
4.1940994 2.7648101 0.29818714 0.76385707
4.5133786 2.6848516 0.26813966 0.86298329
4.8746905 2.7101941 0.27076045 0.4664501
5.269722 2.5444555 0.21952736 1.0472724
5.7887039 2.7377629 0.31193817 1.0338142
6.0880136 2.5411377 0.22321823 1.038528
6.6687851 2.6278687 0.27801228 1.0560267
6.9565144 2.6326036 0.28167459 1.057487
7.3041468 2.527307 0.27624592 1.0638748
7.777853 2.6423807 0.30567962 1.076018
8.1177998 2.5183952 0.34808281 1.0859649
8.5574532 2.5146155 0.36198401 1.0729361
8.9916534 2.4613104 0.31639236 1.0780585
9.4182224 2.5245781 0.31982166 1.0811739
9.8405304 2.4769108 0.30969614 1.0736146
10.242338 2.566005 0.24387413 1.084224
10.687747 2.5611768 0.32662809 1.0770893
11.055119 2.4908569 0.30062497 1.0670121
11.334291 2.6563222 0.24061784 0.96208847
11.860916 2.5906024 0.20591737 0.56822449
12.166544 2.6687746 0.23480022 0.81102675
12.635841 2.6308465 0.32648051 1.0731778
13.017717 2.5361209 0.3286356 1.0808728
13.314934 2.5280385 0.33346534 1.0681424
13.703973 2.4702449 0.29400465 1.0831445
14.239949 2.5920706 0.32612884 1.0812039
14.611919 2.6658168 0.3643724 1.0801923
14.997223 2.5304496 0.31408206 1.0843892
15.452821 2.6043031 0.36953378 1.0823082
15.864159 2.5331964 0.34818104 1.0832675
16.261353 2.6004543 0.39218366 1.0838642
16.654346 2.5528903 0.37586468 1.0843557
17.058033 2.5585418 0.38954136 1.0849302
17.525261 2.5239093 0.39183679 1.0855573
17.606396 2.6364088 0.37109512 1.0868093
18.013241 2.6786451 0.39259872 1.0588655
-2.1465406 2.8933706 0.26203281 1.0449827
-1.8995893 2.8987217 0.25662732 1.0415134
-1.4512125 2.9430354 0.28410119 1.045311
-0.98801905 2.9267969 0.35812253 0.5450151
-0.54790777 2.9525795 0.30321991 1.0448995
-0.15607184 2.9574976 0.31080395 1.0462035
0.27142003 2.9596672 0.33649316 0.88000566
0.43490219 2.9319654 0.36228466 0.54875135
0.88675272 2.9572687 0.32781616 1.0469656
1.323171 2.9544582 0.33847094 0.98499846
1.8201375 2.9557838 0.35085031 0.88100785
2.2216792 2.8903883 0.34094241 0.6439606
2.605701 2.8572392 0.35070154 0.04905922
2.8307207 2.854794 0.3421326 0.064630486
3.3468232 2.8868732 0.34707779 0.049774222
3.7475178 2.9668655 0.37475604 0.38858402
4.0750561 2.902833 0.34957892 0.80105555
4.5230646 2.8667967 0.33773303 0.56655949
4.865067 2.9814429 0.36725757 0.077029698
5.3888769 2.8951716 0.36595893 0.80359495
5.8338356 2.8702776 0.37180546 0.99279857
6.1985202 2.9169657 0.39026624 1.0511224
6.5973997 2.8846955 0.37269062 0.99615622
7.1133928 2.9871993 0.36536694 0.63854814
7.2859964 3.094101 0.331633 0.11903358
7.7233357 2.996304 0.33401787 0.47101057
8.2518606 2.8560143 0.36448121 1.093446
8.6117668 2.8547635 0.37788367 1.0863887
9.1171532 2.8800094 0.34989619 1.0900502
9.4419508 2.9048691 0.35765833 1.0876013
9.8752117 2.9178894 0.36294162 0.046074066
10.14452 2.8550267 0.35821632 1.0919122
10.655485 2.8460741 0.35785705 1.0850151
10.986921 2.9354479 0.35227633 0.96656388
11.282835 2.9183393 0.36193168 1.0348022
11.827398 2.9037795 0.33290899 0.084230058
12.28013 3.0254335 0.38622648 0.26898709
12.627665 2.9136028 0.34667003 0.48921844
12.927194 2.9692984 0.36377519 0.33946764
13.366758 2.9300451 0.36529052 0.88859653
13.783237 2.894475 0.37962359 0.94955397
14.254869 2.8600879 0.33823919 0.54831821
14.729726 2.9518363 0.3560372 0.13611561
15.072285 2.8401213 0.37180859 0.83985174
15.475251 2.8410325 0.33970821 0.10077812
15.776081 2.8349385 0.35912842 1.0328531
16.190758 2.8680935 0.34273064 0.84993082
16.625336 2.8543205 0.37131548 0.98559427
17.056038 2.9800274 0.34927607 0.096460447
17.512989 2.8924716 0.35624215 0.59542948
17.65889 2.8970566 0.31882334 0.22052428
18.00684 2.9335325 0.23847336 0.064061895
-2.2495162 3.2461228 0.37827981 0.053634167
-1.8426672 3.2238948 0.25353962 0.092481159
-1.4421639 3.2414603 0.39752877 0.052955419
-0.96457124 3.3147018 0.38446188 0.069571078
-0.59839869 3.4145632 0.38351965 0.075690441
-0.24497518 3.2316728 0.34438482 0.058568113
0.31214896 3.2658501 0.30466849 0.34696698
0.54569852 3.3771815 0.34371093 1.1100249
1.0166994 3.3272085 0.35782683 0.60114831
1.4547429 3.3640428 0.34971344 0.20170741
1.8250731 3.2891238 0.34365472 0.32944891
2.1292038 3.2968822 0.36413771 0.19067304
2.6290164 3.2332721 0.32030767 0.21994823
3.1263089 3.3733296 0.3669312 0.32863405
3.352469 3.2743523 0.39624953 0.055386998
3.6212885 3.2209401 0.36849418 0.055300772
4.3375092 3.3160596 0.38206667 0.072918989
4.4356413 3.3444557 0.39033753 0.055640221
4.8572063 3.2545059 0.3490133 0.055676542
5.2352185 3.2193234 0.35180297 0.093984887
5.7372694 3.2834105 0.38125607 0.07507436
6.3649235 3.2565513 0.39169773 0.33098364
6.4750652 3.2325139 0.37463611 0.21271925
6.9722242 3.2172322 0.37801898 0.12427155
7.4077525 3.2281756 0.38817561 0.094987385
7.8120732 3.2443094 0.38812855 0.3318021
8.1027832 3.2863779 0.36582875 1.0414474
8.684845 3.2298882 0.33692619 1.0407268
9.1320095 3.2689288 0.37554324 1.0436717
9.3913956 3.2410636 0.38467169 1.0440339
9.7131863 3.3193569 0.34796917 1.0410798
10.297084 3.2614608 0.38028333 1.0445487
10.545347 3.2340443 0.39301854 1.0468022
11.076345 3.2373195 0.39110029 1.0466861
11.35033 3.317771 0.38738468 1.0438433
11.804785 3.3142462 0.36678749 1.0427005
12.212423 3.3090267 0.34242278 1.0422125
12.775997 3.2741728 0.34209937 1.043107
13.029844 3.3932586 0.39331597 1.0431037
13.425254 3.2812662 0.3696472 1.0449679
13.791706 3.283751 0.38389635 0.54866409
14.102062 3.3881845 0.35017812 1.0411307
14.715796 3.2276993 0.38665143 0.30190518
15.105068 3.2261171 0.38943121 0.085857444
15.528136 3.2441707 0.39269954 0.059118815
15.931076 3.2422376 0.37929252 0.063245505
16.141548 3.2705216 0.37742627 0.17835605
16.605518 3.3582294 0.35096377 1.0439732
17.061934 3.3064504 0.3908568 0.057095312
17.5914 3.2380896 0.34932783 0.058175631
17.711819 3.3141108 0.3901611 0.06150512
18.025547 3.3358984 0.32473621 1.0402256
-1.7319231 3.6890101 0.37275428 1.11203
-1.219416 3.6953969 0.39047152 1.1132832
-1.0472811 3.6822567 0.39535871 1.1132832
13.322909 3.6913357 0.39248979 1.0360903
13.997319 3.6710773 0.38806158 1.0353384
14.746407 3.6344261 0.34644783 1.035589
14.851797 3.6448145 0.35665011 1.035965
15.576096 3.6463921 0.38659409 1.0380952
15.79686 3.622489 0.35817754 1.0357144
16.791922 3.6568987 0.35563818 1.0383459
17.156439 3.6866944 0.36212564 1.0350877
17.235909 3.6284294 0.32403761 1.0350877
17.919064 3.6408515 0.38266987 1.0350349
-1.8025644 -4.5060463 0.41050166 1.0672932
-1.4228325 -4.4482918 0.44350147 1.0586462
-2.0153131 -4.0412335 0.45820892 0.04587093
-1.8538058 -4.1504622 0.44571954 0.2990309
-1.4787421 -4.022769 0.5319761 0.17298484
-0.97471178 -4.0986638 0.45827222 1.0552673
-0.70801139 -4.1238861 0.46718681 0.43229949
-0.31646705 -4.0351791 0.44570833 0.31409764
0.092996456 -4.1481161 0.50893044 1.0576439
0.51051497 -4.1671162 0.43701679 0.56109023
1.0965102 -4.0571537 0.42410624 0.44724333
1.4230953 -4.0999832 0.40470591 0.10250664
1.8284938 -4.0616837 0.42606154 0.32286954
2.1478324 -4.0285368 0.42211547 0.32352746
2.697329 -4.0943356 0.41992107 0.57180405
3.64972 -4.0094895 0.40427864 0.048871994
4.2475743 -4.0806184 0.4261829 0.048621178
4.5656838 -4.0303802 0.40010744 0.049373627
10.77049 -4.0025711 0.43500805 1.0533838
13.196907 -4.0477653 0.42200664 1.0528822
13.248972 -4.0295353 0.42126465 0.5510025
15.437374 -4.0749083 0.41440713 0.57305765
16.183933 -4.0311394 0.41766679 1.0865285
16.633915 -4.0453453 0.41320711 1.0008384
17.015352 -4.027523 0.43578374 0.072869778
17.251865 -4.0062304 0.43342891 0.07318306
17.872894 -4.0278969 0.44650027 1.093462
18.053774 -4.0074897 0.42731428 0.097994804
-2.0246305 -3.87642 0.45136753 0.045897085
-1.8352319 -3.6039889 0.42903882 1.0275602
-1.5527403 -3.6331007 0.41905326 1.0120813
-1.1605024 -3.6143646 0.41371727 1.0433652
-0.74837464 -3.6282773 0.42108688 1.0427679
-0.37039036 -3.6732697 0.40924594 1.0323033
0.16965403 -3.7503183 0.47184846 1.0490699
0.6490922 -3.6892433 0.52149189 0.31071505
0.99052918 -3.7043087 0.4826262 0.5948329
1.3079219 -3.6519394 0.42300153 1.0359647
1.6835623 -3.6596174 0.41750312 1.0424275
2.0458624 -3.7034183 0.41065681 1.0426277
2.4873657 -3.7039955 0.41330546 1.040379
2.935461 -3.7307844 0.46180007 0.5881328
3.4241779 -3.6682448 0.4367674 0.93918842
3.7657094 -3.7989767 0.43251595 0.63390124
4.1415772 -3.7986469 0.46336827 0.4716371
4.5890827 -3.713908 0.4647727 0.54876357
5.0276175 -3.8342409 0.42876852 0.17919226
5.411438 -3.7638369 0.48005944 0.11548834
5.7271147 -3.7184873 0.4992885 0.051464401
6.1278515 -3.6984363 0.44503367 0.55808127
6.5844355 -3.7180023 0.43821177 0.065302297
7.0270553 -3.7607825 0.42617005 0.5567112
7.4025264 -3.6700726 0.48138294 0.054602608
7.8512235 -3.7265973 0.42624936 0.056656301
8.180481 -3.6433401 0.47510096 0.058135387
8.5230293 -3.6831217 0.45275405 0.061454274
9.073761 -3.7270114 0.43907934 0.062795743
9.3366756 -3.6861646 0.44061813 0.17049921
9.7788544 -3.6440003 0.44619638 0.10421729
10.147507 -3.6424179 0.42269498 0.082524672
10.585684 -3.6325393 0.44707978 0.060438812
10.984402 -3.6699185 0.42589349 0.05919905
11.254913 -3.6292405 0.45684654 0.059297092
11.82253 -3.7007856 0.45353514 0.054336824
12.2012 -3.6710026 0.43172652 0.055823423
12.664731 -3.7764001 0.47860095 0.096754342
13.027742 -3.8350463 0.45208192 0.096464857
13.256166 -3.7823887 0.46904346 0.096355498
13.791431 -3.830626 0.44095302 0.096145257
14.28207 -3.7153409 0.4782559 0.095573269
14.44067 -3.859972 0.42106742 0.095859855
15.104412 -3.7686839 0.45075893 0.1580618
15.262142 -3.851594 0.44626683 0.59691405
15.882952 -3.6644661 0.52451867 0.59641439
16.107206 -3.7338061 0.48032999 0.37884605
16.491917 -3.9022746 0.43672684 0.67963195
17.000851 -3.6611321 0.46488649 0.13391817
17.281193 -3.6289864 0.61574018 1.0964272
17.66856 -3.6520844 0.60568392 1.0962092
18.018059 -3.7213883 0.57051873 1.0335822
-2.0237603 -3.2164612 0.51926231 1.037586
-1.9048069 -3.2272849 0.489811 1.0359766
-1.5285428 -3.4519401 0.41224569 1.0359575
-0.95241946 -3.4335275 0.48564261 1.0370667
-0.61034298 -3.3530605 0.58589673 0.79300696
-0.20304528 -3.4610682 0.46834421 1.0404716
0.2622759 -3.2746077 0.58733362 0.99508762
0.57530004 -3.3652883 0.49594671 1.0369685
1.016071 -3.5604382 0.46201742 1.0420612
1.2360821 -3.4767125 0.48451623 1.0406916
1.6579249 -3.4859495 0.49033797 1.0417216
2.1820021 -3.2522962 0.60263401 1.0424697
2.5969262 -3.380733 0.54785955 1.0408235
2.9728365 -3.4776108 0.50698406 1.0417145
3.3107555 -3.4997823 0.50037682 1.0422064
3.7689402 -3.3315392 0.5991028 1.0386678
4.2616758 -3.5323877 0.52788693 0.85949105
4.6048083 -3.360043 0.57750386 0.91960633
5.1468 -3.2418132 0.71021605 0.19682267
5.4691935 -3.292737 0.6218698 0.82611668
5.838069 -3.3495233 0.66925049 0.051083244
6.2276659 -3.4009242 0.57288903 0.5516603
6.5533867 -3.4531612 0.51672709 0.060304992
7.0778546 -3.367002 0.62061816 0.053287819
7.3563137 -3.3576717 0.59800279 0.54850996
7.6751666 -3.4891152 0.547589 0.054933239
8.1266003 -3.4702272 0.53680491 0.057030641
8.4445953 -3.4034963 0.56715012 0.057134975
8.9345665 -3.3421133 0.58635318 0.057983831
9.3151846 -3.3438313 0.57278603 0.059380144
9.7600956 -3.3400912 0.56353045 0.061031558
10.112814 -3.5045061 0.46616894 0.06558039
10.6041 -3.5302899 0.44511092 0.073773369
10.99428 -3.4843497 0.45907226 0.080017395
11.445415 -3.5698032 0.44034278 0.071305029
11.894838 -3.2825418 0.56496298 0.070058309
12.279985 -3.3456879 0.57340419 0.055507474
12.542109 -3.4346602 0.61326373 0.09561801
12.998423 -3.5427804 0.56562209 0.096124485
13.391457 -3.3006482 0.65590894 0.095220551
13.683679 -3.375196 0.61568743 0.094724879
14.152523 -3.5050173 0.56266296 0.095262945
14.732042 -3.3737259 0.60666054 0.094766155
14.830343 -3.4583726 0.57482481 0.094863139
15.418625 -3.2218938 0.65733182 0.094234541
15.712709 -3.4860122 0.5490579 0.094610177
16.035604 -3.5543613 0.51162094 0.093812048
16.60029 -3.3678353 0.61998761 0.37213925
17.111341 -3.4170625 0.71042168 1.0881052
17.376341 -3.3019028 0.76420796 1.0960519
17.785738 -3.2617586 0.69759107 0.59605151
18.015644 -3.4185083 0.65097594 0.71995354
-2.0160396 -2.9361744 0.56248254 1.0364193
-1.980496 -3.0102925 0.54927146 1.0365818
-1.4403672 -3.0538449 0.65368444 1.0427121
-0.89394939 -2.9403419 0.68396437 0.994295
-0.53686202 -3.024056 0.64691103 1.0392178
-0.16715762 -2.8762183 0.69805956 1.0376644
0.24707405 -3.0854807 0.63637733 1.0395676
0.45779079 -3.1340499 0.63285577 1.0416038
0.82704616 -3.1710169 0.62810183 1.0437027
1.3656347 -2.937253 0.70324278 1.0389892
1.7785103 -3.0536404 0.68220866 1.0418341
2.1078095 -3.007319 0.70912516 1.0404596
2.5741484 -3.0783076 0.68151021 1.0373534
2.9461703 -3.1288159 0.66024113 1.0416287
3.4092577 -2.9184608 0.73929709 1.0366354
3.7320225 -2.9854972 0.73227572 0.99875021
4.262166 -3.0367446 0.71922565 0.98134345
4.6349134 -3.1214242 0.68216228 1.0354154
4.960618 -3.0966887 0.6938417 1.028213
5.4851894 -3.0549788 0.73381531 0.79556209
5.8812165 -3.012084 0.74977088 0.54909265
6.2481298 -3.0441346 0.70439136 0.05652412
6.7098427 -3.1266537 0.53114176 0.068054147
6.9573412 -2.9873338 0.77794564 0.053828292
7.464304 -3.0131848 0.61115599 0.06979996
7.7692728 -3.018456 0.72659868 0.05692238
8.3218479 -3.077457 0.68992984 0.058198318
8.510725 -3.1387186 0.65397084 0.059084885
8.9131365 -3.0173483 0.70704675 0.059591044
9.3265743 -3.054651 0.64158881 0.096887656
9.7015276 -3.0162306 0.69474494 0.18539907
10.267218 -2.9232035 0.71747029 0.099682912
10.693787 -2.9094248 0.71505433 0.074047089
11.019938 -2.9652157 0.70900571 0.066910423
11.430302 -2.9560819 0.69070947 0.079237446
11.80917 -3.0721354 0.6637401 0.082531981
12.271048 -3.0215101 0.74768472 0.075383797
12.493966 -3.0280337 0.76661676 0.093577273
13.117939 -3.0345812 0.76128471 0.094391964
13.321257 -3.0661924 0.74736547 0.094312176
13.708935 -2.9650817 0.78162813 0.094214328
14.276091 -2.9951954 0.76040602 0.093929544
14.560652 -3.1388226 0.70060337 0.094196387
15.13534 -2.9768796 0.75803149 0.093803681
15.245149 -3.0438151 0.73071462 0.093859464
15.929609 -2.8680935 0.78341353 0.093212657
16.145779 -2.9887295 0.73751652 0.093608953
16.432325 -3.1670752 0.65877521 0.093512326
17.150879 -2.819072 0.78554356 0.092816107
17.407831 -2.9930117 0.71818501 0.093356967
17.652412 -3.1527605 0.65107667 0.12478015
18.020523 -2.9200559 0.70546031 0.942747
-2.0252805 -2.7785587 0.61366749 1.0300496
-1.791828 -2.7154031 0.7615723 0.7970103
-1.3600909 -2.706538 0.76175213 0.79714978
-0.98244959 -2.7093663 0.77672207 0.79447031
-0.62704289 -2.6738567 0.79142827 0.97905838
-0.35851538 -2.7365699 0.73619878 1.0362906
0.33036095 -2.7864766 0.77321458 0.93966818
0.60824305 -2.6919935 0.74090719 0.059062708
0.96055919 -2.7063365 0.78452671 0.55108857
1.3985548 -2.6389856 0.71618938 0.089500517
1.6667467 -2.6584244 0.72270012 0.061526362
2.0605378 -2.6710978 0.73690933 0.55720735
2.599036 -2.4832821 0.72135305 0.06826812
2.9857974 -2.6229234 0.69921827 0.075751886
3.3336096 -2.6726747 0.75268662 0.071346745
3.9061251 -2.5938926 0.73142594 0.076785669
4.294775 -2.6744184 0.67056835 0.06876418
4.6861672 -2.68309 0.66884172 0.070527136
4.9870238 -2.5948255 0.72420573 0.068703026
5.4239135 -2.645654 0.70723295 0.068502009
5.6794481 -2.6472626 0.70076525 0.07103312
6.1309562 -2.5565193 0.76252919 0.069486246
6.7053018 -2.72298 0.69699091 0.066917181
7.0192223 -2.6380107 0.7469306 0.070406497
7.4475918 -2.7303991 0.71576643 0.068229221
7.9344177 -2.73276 0.75635397 0.065162659
8.2676449 -2.7017808 0.76145089 0.13422613
8.5747681 -2.7785337 0.74508107 1.037343
8.8863811 -2.7504129 0.75619775 0.066823244
9.3092279 -2.7471442 0.74297178 0.0814538
9.9270267 -2.7142398 0.76315808 1.0390978
10.14296 -2.6752939 0.79892159 1.041604
10.453127 -2.7343388 0.78073406 0.067292929
12.255647 -2.7684145 0.78445143 1.0448625
12.793822 -2.7709491 0.79848707 1.0453634
13.023616 -2.7599201 0.71241081 1.0427318
13.449579 -2.7541318 0.75321931 0.30971169
13.791134 -2.7410216 0.75115258 0.063251853
14.216758 -2.7415819 0.77275556 0.18215363
14.57914 -2.7183444 0.77189779 0.079757825
14.867643 -2.6359754 0.76005483 0.067652941
15.44942 -2.5871427 0.77006143 0.069783136
15.858953 -2.6975598 0.7097941 0.075154677
16.160896 -2.7332296 0.78282547 0.078961775
16.704849 -2.6539254 0.76596999 0.066705003
17.092571 -2.7814238 0.79735482 0.092438474
17.299362 -2.6695094 0.78057611 0.07712812
17.917648 -2.5563307 0.77426249 0.092698514
18.025074 -2.6692619 0.7649036 0.55409598
-2.1129634 -2.3090749 0.78798813 1.0417329
-1.9164923 -2.2680421 0.78827512 0.084032878
-1.4180121 -2.3850746 0.72579974 0.071052596
-1.0006497 -2.2545054 0.78344619 0.070927277
-0.60686505 -2.3294914 0.7806524 0.075814471
0.23423414 -2.3208916 0.73047549 0.067418516
0.43983397 -2.3182211 0.78836381 0.065162897
0.86393797 -2.3368042 0.72372168 0.067919768
1.4323306 -2.3690329 0.72499329 0.068421021
2.2058964 -2.3157787 0.77155584 0.069235548
2.7114308 -2.2906296 0.77907538 0.069736809
3.2452202 -2.3696625 0.77973902 0.067293227
16.814962 -2.3274777 0.79896551 1.041604
17.866337 -2.3053856 0.44416124 0.053860933
18.032688 -2.2601349 0.78670001 0.067329451
-2.0894971 -1.9269292 0.72978193 0.054616168
-1.9528668 -1.9543939 0.68233138 0.086654067
17.888586 -1.8797798 0.53993845 0.54760647
18.028278 -1.9707676 0.62842691 1.0458646
-2.0879443 -1.5556908 0.74538398 0.061152935
-1.9094586 -1.4621904 0.66880703 0.092700481
17.850525 -1.4756799 0.61394393 0.64435101
-1.9005618 -0.86528468 0.74422222 0.090476036
17.882084 -1.0472829 0.52850324 0.17548573
17.750275 -0.67356849 0.58030224 0.64512855
-1.86333 -0.17491552 0.55542558 0.60181713
17.816166 -0.31080472 0.51710105 0.57218027
-1.8752141 0.18517351 0.56183994 1.0997183
17.703789 0.09828984 0.67889977 0.14874691
-1.8159372 0.67802483 0.67480814 0.84361303
17.73666 0.70524144 0.4335393 0.60563904
-1.7959001 0.99108887 0.71162152 1.1116683
17.703672 0.86651587 0.61045277 0.12499392
-1.7869306 1.4511617 0.63931185 1.1066469
17.598867 1.3171911 0.79766005 1.0912275
17.644421 1.3916556 0.60524428 0.39396426
-2.1896088 1.9699361 0.41331288 1.0607746
-1.8994646 1.8066597 0.5841819 1.0999866
-1.4159218 1.9355304 0.43158117 1.0686712
-0.891285 1.973699 0.44048533 1.068922
0.31439695 1.9940596 0.4302699 1.0694237
17.636713 1.7933826 0.54417711 0.84915173
-2.282804 2.2554817 0.59666258 0.55179399
-1.6774485 2.3289824 0.49074322 1.0661057
-1.5981427 2.2928176 0.50157565 1.0644112
-0.85003614 2.2929993 0.50766605 1.0664945
-0.59006917 2.34409 0.44907111 1.088346
-0.061771426 2.1881366 0.52766627 1.0750628
0.088635512 2.2675261 0.54476464 1.0708334
0.54130715 2.2458954 0.52779835 1.0704417
1.0119623 2.2912676 0.45812958 1.0663888
1.3433827 2.3585896 0.56381893 1.0703709
1.8913474 2.1525967 0.46510619 1.0710526
2.1328964 2.217834 0.44415048 1.0687339
2.5887256 2.2353985 0.48188251 1.0719299
2.8277564 2.2219012 0.40755346 1.0837088
3.3180375 2.3595595 0.44609722 1.0695071
3.9182816 2.3671169 0.43415985 1.0671682
4.0371208 2.2647166 0.41769415 1.0828319
4.4011765 2.396179 0.44590861 1.0824556
4.8416409 2.373704 0.42066577 1.0680451
5.4087849 2.3612509 0.40753978 1.0695174
5.6105804 2.3854568 0.41491002 1.068922
11.863292 2.3716164 0.40358508 0.036622882
12.013233 2.3913615 0.44308642 0.03659153
12.653679 2.3615606 0.412099 0.036873698
12.828309 2.3847096 0.45571613 0.036842346
13.372179 2.3180938 0.41112912 0.037093163
13.713055 2.3430483 0.44613263 0.037155628
15.575569 2.3209972 0.43247589 0.037593842
15.813531 2.2127981 0.4092077 0.037593842
16.101009 2.3580008 0.45491225 0.038251758
16.458975 2.2977893 0.43749955 0.037093163
17.127293 2.2904234 0.46325725 0.037844658
17.514648 2.1465869 0.53131986 0.82349706
17.630171 2.1803989 0.65960252 1.0128908
18.011116 2.2427592 0.43112195 0.050860189
-2.3112566 2.7564464 0.41521868 0.045371264
-1.8532441 2.6886451 0.52715355 1.0601797
-1.3433287 2.5447745 0.51974267 1.0639683
-0.93087447 2.6150918 0.48905221 1.0604858
-0.75075549 2.6094012 0.52669871 1.0621219
-0.1675929 2.6041646 0.4827984 1.0472497
0.35056114 2.5355687 0.6151585 0.95458972
0.71008503 2.5370824 0.62385428 1.0306557
0.89175147 2.5379925 0.43005604 1.0609441
1.3114516 2.5307384 0.46432284 1.0623091
1.8518813 2.6425776 0.4424206 1.0600296
2.1602149 2.652647 0.46724212 1.0615705
2.4321895 2.5071743 0.43969157 1.0629158
2.8706558 2.6013107 0.43633631 1.0619175
3.3478556 2.5848236 0.43517599 1.0626197
3.7407258 2.6699543 0.56157351 1.0685065
4.1326513 2.736979 0.5844847 1.0676856
4.5445004 2.5772097 0.50648284 1.0700309
4.9798355 2.7168298 0.47279078 1.0644038
5.4502831 2.7250571 0.48943883 1.0620872
5.7728581 2.655359 0.45410365 1.0564644
6.1374741 2.7219257 0.44720376 0.89810443
6.6009474 2.6810293 0.52515972 1.0704114
7.1558661 2.633348 0.43846044 1.0658127
7.4136486 2.5871463 0.4112626 1.0662671
7.6641483 2.5440865 0.43309683 0.81682301
8.1663408 2.6910236 0.4510372 1.0673243
8.71278 2.6780372 0.44501674 1.0690204
8.910511 2.7354381 0.46688628 1.0057567
