# .PCD v0.7 - Point Cloud Data file format
VERSION 0.7
FIELDS x y z intensity
SIZE 4 4 4 4
TYPE F F F F
COUNT 1 1 1 1
WIDTH 1156
HEIGHT 1
VIEWPOINT 0 0 0 1 0 0 0
POINTS 1156
DATA ascii
3.4614673 1.0698819 2.4432433 0.055803679
3.7082238 1.0711379 2.4652414 0.10156331
4.21492 1.0818765 2.5091639 0.067837685
4.6394057 1.0645881 2.4304881 0.05729308
5.1406512 1.0791109 2.4794369 0.055017658
5.3318386 1.1583505 2.5179181 0.054572057
5.7184296 1.1177511 2.4803572 0.057901949
6.3043976 1.1018646 2.4807532 0.066917419
6.5399294 1.1248522 2.4512079 0.35181689
7.0737896 1.0342833 2.4225631 0.31206119
7.9483948 1.139184 2.4228067 0.088596344
8.2868023 1.145133 2.4308777 0.088596344
8.511651 1.1397634 2.4193692 0.10159765
8.9695606 1.1016417 2.4437284 0.56786489
9.4691925 1.0527847 2.4636667 0.12127648
9.6933022 1.0410807 2.478313 0.11851466
10.297964 1.0306716 2.5018044 0.09658505
10.711189 0.89134002 2.4416947 0.096667647
10.995346 1.1483402 2.5492625 0.096385166
11.313494 1.1331973 2.4870715 0.054735746
11.912102 0.81491613 2.4233475 0.097929187
12.300072 0.89702511 2.4442172 1.0387819
12.58385 1.1182319 2.5530059 0.097619057
12.956163 0.99198943 2.5032673 0.097993881
13.360996 0.85184371 2.4477289 0.09869691
13.627736 0.86320603 2.4329765 1.0975819
14.152466 1.0706955 2.5326371 0.097632743
14.662954 1.139802 2.5700717 0.098327197
15.042628 1.0339359 2.5281842 0.098495506
15.357361 0.9179706 2.4530778 0.59891343
15.791828 1.0292848 2.4956012 0.09671355
16.252075 0.91206527 2.449183 0.096677028
16.671707 1.0976801 2.5585947 0.13451612
17.132904 1.055933 2.5220194 0.22175722
17.304277 1.0541344 2.5640676 0.34732443
17.77803 0.91870582 2.4944959 0.15530205
18.014021 1.1230757 2.4170823 1.0211208
-2.4093404 1.5216718 2.5658412 1.0138707
-2.2016258 1.2586802 2.5429661 0.054656848
-1.8304259 1.3171241 2.4797463 1.0440505
-1.3410933 1.3817828 2.5444479 0.54918039
-0.92977297 1.2758634 2.5470088 0.055537619
-0.64464056 1.3577721 2.5576234 0.30233553
-0.22729029 1.4395626 2.6093948 0.071949467
0.29834986 1.4538541 2.6036267 0.30414343
0.55076611 1.440938 2.5866528 1.0130486
0.99867892 1.4214815 2.5751154 1.029609
1.3573852 1.442331 2.6382742 0.79838204
1.7365448 1.4947512 2.666625 0.9213953
2.0920589 1.4881662 2.6698439 0.68785107
2.6661277 1.58172 2.723505 0.54896939
2.9111812 1.4518446 2.6711833 0.38341406
3.2438869 1.3734995 2.6432652 0.17616673
3.7755175 1.5564239 2.7171123 0.052531056
4.1823297 1.5244571 2.6908531 0.053150535
4.5241346 1.5250394 2.6859438 0.053830639
5.0376272 1.494432 2.6659529 0.054885723
5.3922176 1.4579229 2.6368825 0.055579875
5.8292365 1.4411111 2.6293879 0.056256555
6.2407866 1.4427729 2.5898037 0.059181809
6.5908289 1.3580842 2.5309043 0.060872428
7.0085359 1.3672755 2.5033627 0.074078642
7.3168669 1.3993967 2.4598067 0.071714759
7.7872725 1.3666571 2.4711161 0.075491354
8.1419029 1.3662181 2.5074115 0.086394861
8.5744276 1.5160784 2.5631263 0.084180787
8.8860645 1.4499997 2.5460873 0.070191458
9.327899 1.474483 2.6023674 0.11736372
9.7422771 1.3167151 2.5959995 0.094008259
10.184074 1.4081109 2.635443 0.10791615
10.689144 1.2931936 2.6112041 0.096210703
10.868728 1.2880733 2.6068652 0.096159831
11.520571 1.4128613 2.650038 0.095434062
11.804867 1.3785676 2.6510975 0.096560054
12.143558 1.2629445 2.6076469 0.097147286
12.531217 1.5219001 2.7079246 0.096578747
12.995413 1.496928 2.7029603 0.096905701
13.350995 1.4963455 2.7091947 0.097243227
13.653775 1.4162371 2.6786652 0.097493663
14.134302 1.2843902 2.6260428 0.097868465
14.601387 1.3530383 2.6231256 0.095959619
14.957052 1.5591908 2.7322478 0.09707962
15.350655 1.4913402 2.7068834 0.097348198
15.81199 1.4066836 2.6781168 0.097520813
16.166111 1.5782001 2.7544117 0.09799467
16.681847 1.4740117 2.7154117 0.098244399
17.040493 1.4608546 2.684566 0.14242096
17.239309 1.360188 2.6724997 0.098902285
17.833296 1.2353655 2.6233351 0.098892301
18.006495 1.4038857 2.5115931 1.031037
-2.4373736 1.6870639 2.6507277 1.0434581
-2.269855 1.7637262 2.7468579 0.055660248
-1.8453498 1.7148118 2.6968446 0.48613584
-1.4665349 1.7547213 2.7029238 0.74262983
-1.0504674 1.6602293 2.7047672 0.056377098
-0.71577919 1.773693 2.7465322 0.072265893
-0.18218185 1.6436088 2.6826916 0.18026516
0.081079125 1.7574666 2.7267289 0.53471333
0.46401075 1.7869446 2.7307882 1.031311
0.98488867 1.7319193 2.7474179 0.96872973
1.3407562 1.6593113 2.7000403 1.0322983
1.8208432 1.7742646 2.7629223 0.9008584
2.1736028 1.6766307 2.790956 0.053508066
2.5190725 1.6758876 2.7787876 0.087437533
3.0863841 1.7345335 2.7810545 0.13521376
3.4492419 1.7060606 2.786953 0.052427847
3.8931918 1.710784 2.7724495 0.053307109
4.1579199 1.7456644 2.7852318 0.053775933
4.5953941 1.656795 2.7441659 0.054400347
5.0126219 1.7019784 2.7494574 0.055306349
5.3557348 1.6875668 2.7352138 0.056255445
5.8653746 1.7997217 2.766613 0.056666229
6.1261225 1.7852998 2.7287412 0.061571561
6.5386944 1.7001994 2.6688738 0.061572537
6.920754 1.8642828 2.7453566 0.062955819
7.505909 1.7284939 2.6620269 0.068688028
7.7888479 1.7357141 2.6569009 0.074676871
8.2053099 1.8516451 2.7162175 0.070933208
8.4802742 1.8879733 2.6934178 0.077122495
9.017395 1.8639758 2.7053373 0.082897395
9.550375 1.8086418 2.7274499 0.11901605
9.6810703 1.6610074 2.7502499 0.094160922
10.171882 1.7209232 2.7397323 0.098467663
10.704489 1.7226777 2.7828 0.095072985
10.886421 1.6793232 2.7668295 0.095212057
11.461476 1.767725 2.7370443 0.089398086
11.902945 1.7199504 2.7793338 0.095323339
12.173986 1.6608135 2.7594128 0.095507026
12.635729 1.6861382 2.7688541 0.095655173
12.927145 1.6067083 2.7505054 0.096864402
13.33507 1.761794 2.769474 0.093893729
13.741057 1.66915 2.7280719 0.094013982
14.266031 1.7666831 2.7730665 0.094571188
14.591145 1.727595 2.7589159 0.094745927
14.954483 1.6770201 2.745296 0.094845451
15.517173 1.6950834 2.7429416 0.09367083
15.695569 1.6745237 2.7916603 0.097738966
16.191444 1.8136818 2.775821 0.093514889
16.57173 1.6767465 2.7453027 0.095237963
17.042612 1.7372799 2.7350471 0.093914449
17.327814 1.7612431 2.7220535 0.092040226
17.680618 1.776376 2.6925476 0.43117395
18.014019 1.9308405 2.708765 1.0305767
-2.2347713 2.1485486 2.6415601 0.12252422
-1.8995819 2.2849007 2.696753 0.063781589
-1.5396705 2.1099353 2.7762444 0.55119544
-1.0323063 2.1139622 2.7907286 0.80038226
-0.67838931 2.078855 2.7794716 0.055149026
-0.23443778 2.0796864 2.7643476 0.059671685
0.095365182 2.0744271 2.7635446 0.056786168
0.71806884 2.0216842 2.7438521 0.056535434
0.94742709 2.1752877 2.7680893 0.059531037
1.3371582 2.0817561 2.7309442 0.058088832
1.8034971 2.0805502 2.7639594 0.057167135
2.1669898 2.0791862 2.7639556 0.057438575
2.7532487 2.0743942 2.7962499 0.055316996
2.8928971 2.0665665 2.7975917 0.055419743
3.5305133 2.0429649 2.7952602 0.056360956
3.9017601 2.0328145 2.7958822 0.057119403
4.1566572 2.0198755 2.7936556 0.057802364
4.5855322 2.0807569 2.7801299 0.062362578
5.0517325 2.1432738 2.7334027 0.06723056
5.5020943 2.1351418 2.7747588 0.062556699
5.8890824 2.1297355 2.7668271 0.063539453
6.2252941 2.0801573 2.7182381 0.071647085
6.5488586 2.1079729 2.7673602 0.082925975
6.9470878 2.0459356 2.7286146 0.07208246
7.3280563 2.1678762 2.7790241 0.08064092
8.2567663 2.057826 2.7764025 0.56278205
8.5476608 2.0723321 2.7568541 0.31835842
8.9434452 2.0623677 2.7683945 0.074435949
10.286249 2.2473035 2.7715924 1.031391
10.553345 2.1470177 2.7800853 0.1900415
10.968687 2.0438399 2.7354062 0.18791035
11.221475 2.0183439 2.6723206 1.0338345
12.134864 2.1328108 2.789428 0.31954896
12.683193 2.0525246 2.7586975 0.56184208
13.124956 2.1526685 2.7834814 1.0403512
13.537433 2.0826998 2.7615061 0.20126095
13.935401 2.100244 2.7924418 0.091180444
14.200092 2.0661998 2.7797794 0.094048508
14.687496 2.0661616 2.7916965 0.088020906
15.110768 2.0712695 2.7711153 0.090022564
15.37459 2.1857276 2.7719917 0.084582485
15.783213 2.0965962 2.7557678 0.085869938
16.28194 2.2113252 2.7900372 0.085054338
16.739195 2.2215571 2.7961164 0.085900232
17.006229 2.1637068 2.7859468 0.088031992
17.459503 2.1576095 2.7741411 0.087946504
17.658409 2.1294074 2.7479186 0.09222661
18.011089 2.0959144 2.7782016 1.0325397
-2.3510907 2.6323376 2.6837902 0.15279096
-1.8253415 2.4276581 2.7649374 0.11957256
-1.2943656 2.4047599 2.7754331 0.062406063
-1.1420419 2.5339735 2.7947137 0.06641601
0.18847211 2.4607277 2.7836182 0.067167886
1.2616674 2.4024787 2.7744045 0.067919768
2.3037057 2.4300082 2.7946918 0.068922266
2.6008332 2.4053745 2.7865312 0.069047585
13.866699 2.4353602 2.7735314 1.031055
14.075901 2.417393 2.751842 1.0319904
14.685391 2.5053802 2.7901478 1.0320507
15.005093 2.423995 2.758884 1.0323801
15.279989 2.4556878 2.7837799 1.0327381
16.701027 2.4526772 2.7907712 1.0340853
16.927437 2.5160458 2.7898321 1.0358396
17.556126 2.5378022 2.7894411 0.084396996
17.610149 2.4539068 2.7408299 0.090546198
18.033123 2.6877844 2.7039261 0.82936406
-2.4056706 3.1480498 2.6368258 0.84341669
-2.1833963 2.9153478 2.6087351 0.6260621
-1.7355231 2.993598 2.5839026 0.65609699
-1.3875459 3.0424316 2.5086854 0.94387311
-0.9043414 3.0865512 2.5754285 0.2118827
-0.60897863 3.1414216 2.4933903 0.31082672
-0.26964754 3.182044 2.5041714 0.070144743
0.30933511 3.1841974 2.5959041 0.060621899
0.66240263 3.1743803 2.6972854 0.062200017
0.94766247 3.1833842 2.7395043 0.1848371
17.504269 3.051651 2.7206912 0.083105795
17.625671 2.969914 2.5229263 0.11274636
18.006453 3.1045053 2.6513569 0.17920664
-2.4060302 3.204664 2.7266536 0.048371315
-2.1079762 3.2310853 2.4546299 0.163306
-1.7423241 3.2194557 2.4081502 0.67542273
-1.3222786 3.2137175 2.4053035 1.0477674
-1.0269196 3.2435851 2.4606686 0.64998841
-0.65280288 3.2181597 2.4336567 1.0455084
-0.25349355 3.2110298 2.4410181 0.06700021
0.21665756 3.2428176 2.4673107 0.71851063
0.55080521 3.2386146 2.5175533 0.16765869
1.00279 3.2675853 2.5428517 0.083033882
1.4515171 3.2934916 2.5407884 0.30163792
1.7111995 3.3328049 2.6276686 0.26831359
2.2589707 3.3946795 2.5597959 0.41549975
2.4829426 3.4280977 2.5873342 0.55225003
3.0663321 3.4593372 2.6169672 0.30646628
3.5039241 3.5251608 2.5704446 0.55019331
3.756392 3.5279567 2.6292892 1.0528529
4.2186551 3.5744805 2.6757565 0.56353378
17.481525 3.2706254 2.5775113 0.084291726
17.625488 3.5318601 2.5375483 0.089476719
18.005844 3.499567 2.6342454 0.55336744
-2.2498894 3.6498904 2.4430799 0.086305812
-1.8325863 3.609396 2.4471338 0.49091202
-1.3825245 3.671526 2.5977015 0.057218552
-0.96566308 3.6419899 2.5515208 0.18765517
-0.71595079 3.6728446 2.430058 1.0476054
-0.095184945 3.6345215 2.5757072 0.60785311
0.31689799 3.6339078 2.4048791 0.80545872
0.48441482 3.6114798 2.4046831 0.058778144
0.94667304 3.6083724 2.441865 0.47299641
1.4158959 3.6036479 2.446162 0.39371932
1.8069205 3.6088381 2.5110011 0.47180888
2.179791 3.6170735 2.425817 0.12017442
2.7219877 3.6302459 2.4221499 1.0500087
2.8907347 3.649879 2.4337006 0.92712438
3.435849 3.6191015 2.4746423 1.0031227
3.7220054 3.6327727 2.4216323 0.55376101
4.1585722 3.662967 2.5331535 1.0503858
4.5223632 3.695859 2.5091157 0.99152982
5.0827827 3.7010829 2.629688 1.0543817
5.3647051 3.7214501 2.6559367 1.0581369
5.7736559 3.7392297 2.5221374 0.31431642
6.2410536 3.8370521 2.5076902 1.0484351
6.6959834 3.7343962 2.673106 0.56084877
7.0529089 3.8038917 2.6975417 0.93577391
7.5083532 3.8200274 2.6073751 0.55588061
7.7492938 3.796222 2.6461372 0.10898296
8.2338552 3.8087165 2.6942182 0.084461018
8.6066322 3.9293561 2.4353976 0.96519715
8.8675995 3.9200745 2.502275 0.91757762
9.3072777 3.9170191 2.6436739 0.090227127
9.9447289 3.9738157 2.5769868 1.092242
10.084581 3.8993177 2.7713022 1.0933278
10.556158 3.9768231 2.6949437 0.81647426
10.930166 3.9472823 2.7088661 0.39127862
11.456519 3.9503469 2.6986074 0.58888221
11.892725 3.8938231 2.6643715 0.12230922
12.279956 3.9736185 2.6461177 0.098313898
12.695908 3.9147615 2.4841492 0.11509565
13.041507 3.9124918 2.5674701 0.83556801
13.481104 3.9079452 2.612462 0.84596229
13.912624 3.916328 2.6547904 0.97497368
14.251079 3.9256892 2.680572 1.0836153
14.619517 3.9095225 2.6844444 1.0276288
15.102087 3.960402 2.6225815 1.0623983
15.363665 3.9145665 2.6946781 1.0666515
15.815535 3.9136987 2.71981 1.0749261
16.265812 3.9501019 2.6243358 1.0281262
16.604301 3.9147787 2.7122438 1.0274546
17.082195 3.9543023 2.625669 1.0763574
17.481441 3.7832561 2.776767 0.082957283
17.607986 3.8356924 2.6979361 0.085645571
18.009663 3.8723183 2.5528414 0.18204552
-1.7526214 4.0078726 2.5418615 0.34690291
-1.3535931 4.0160427 2.5151632 1.1229181
-0.92159647 4.0085297 2.4591513 0.60657567
-0.62687552 4.0411506 2.4340811 0.34683916
-0.21204853 4.0032082 2.4318492 0.60727143
0.30219775 4.0037251 2.4127164 1.1207032
0.63041031 4.0055709 2.4068427 1.12134
0.88455033 4.0089393 2.4070005 1.1213636
1.351513 4.0148416 2.4268708 0.09197998
2.7575297 4.0109248 2.402231 0.094486237
2.9747629 4.0134525 2.4245262 0.088032499
3.9160793 4.0071344 2.406738 0.08997488
4.082479 4.0041137 2.4869905 1.0290728
4.4401484 4.032795 2.4267135 0.56303263
5.0262041 4.0020618 2.4305983 0.15371251
5.4153814 4.0178413 2.4538207 0.14958882
5.8659 4.0527635 2.4667673 1.0310776
6.0616727 4.028863 2.4513025 0.56177944
6.641675 4.0124798 2.4356656 0.12038534
7.0182791 4.0396509 2.4151287 0.3273356
7.4488797 4.0095949 2.4337573 0.31222641
7.700593 4.0071716 2.4429879 0.25691745
8.1607227 4.01402 2.4680185 0.20498347
8.5045471 4.0340495 2.4428034 0.32344469
9.0656624 4.0533991 2.5231137 1.0285146
9.5588388 4.0505166 2.5408814 1.0286686
9.8414383 4.0259867 2.5120401 0.084105194
10.336503 4.0243249 2.5543838 0.98684502
10.589954 4.0389891 2.5720963 0.95568228
10.990852 4.0607281 2.6135375 0.612284
11.568176 4.1334019 2.5593748 0.84411049
11.96162 4.1136971 2.6996145 0.49267474
12.368116 4.1601992 2.6630325 0.49421787
12.776466 4.2002907 2.6565652 0.42957798
13.161345 4.2139587 2.7004693 0.59473908
13.404472 4.3317022 2.4784086 0.39403895
13.898895 4.3132238 2.6018283 0.6288718
14.012999 4.3718824 2.4895663 0.59782636
14.484441 4.3119297 2.7171698 0.78553939
15.149408 4.3586936 2.7526884 0.59578955
15.351597 4.3444557 2.655977 1.0930246
15.959284 4.3901453 2.7935915 1.0964804
16.119564 4.3777537 2.696193 1.0293068
16.625198 4.3773651 2.7114751 1.0263708
16.91996 4.3581524 2.7642164 0.39363366
17.514605 4.3771925 2.6968236 1.0810061
17.615702 4.164362 2.5473318 0.2611272
18.025404 4.0167699 2.4664779 1.0475248
13.734494 4.4141712 2.5183988 0.091478586
14.348042 4.432724 2.4586155 0.088345759
14.565226 4.447473 2.4470115 0.095007069
15.087063 4.4975977 2.4218206 0.095310107
15.34194 4.445735 2.6302056 0.46833923
15.903166 4.4301 2.7321367 0.9334625
16.393177 4.6075473 2.4160399 0.59611845
16.467911 4.5630941 2.6096754 0.31712928
17.035879 4.508801 2.7944479 0.096183881
17.399582 4.6241636 2.5666718 1.0966978
-1.760383 1.1573534 2.8260815 1.090852
-2.2696705 1.5797751 2.8350086 0.055076554
-1.7710454 1.5706689 2.8242285 0.079144999
-1.331591 1.5677208 2.8230283 0.11181061
-1.0525192 1.4735281 2.911808 1.0748124
-0.58195066 1.3790381 2.8862777 1.0917292
-0.22896269 1.3878491 2.8505454 1.0921054
0.099951982 1.4140369 2.8302174 1.0749373
0.71306109 1.4167641 2.8291712 1.0924807
0.89443028 1.5442436 2.8395977 1.064646
2.1911058 1.541638 2.8110695 1.0558901
3.1155293 1.5947788 2.8044994 1.0551376
10.440592 1.5582423 2.8172548 0.047618866
12.132203 1.5260339 2.8033621 0.047869682
13.210899 1.4095393 2.8025062 0.046365738
13.82189 1.4990348 2.871376 0.046365738
14.961966 1.591589 2.8126121 0.04736805
15.960978 1.39905 2.8227739 0.046616554
16.159195 1.4739828 2.8420911 0.046616554
16.75634 1.5271758 2.8649263 0.57092714
17.107264 1.3912005 2.8409719 1.0294799
17.399647 1.519325 2.9122081 1.093363
17.737473 1.4428656 2.8697834 1.0945216
18.089663 1.5597863 2.8091106 1.0543861
-2.4305043 1.9060824 2.9632158 0.11002487
-2.209029 1.9514687 2.814486 0.17807764
-1.8230014 1.9870539 2.8383005 0.23004675
-1.491154 1.9776123 2.8508418 0.050396129
-0.99645567 1.9358637 2.8141356 0.053791929
-0.70077866 1.9724724 2.8677664 0.28579813
-0.13729745 1.9682472 2.8342047 0.18026109
0.27969292 1.9335093 2.8288522 0.98334908
0.54631728 1.9656411 2.9037571 0.43622372
1.0402678 1.9792478 2.8941956 0.54799223
1.4941359 1.9727975 2.9248939 0.084088847
1.8070881 1.8913916 2.8562942 0.5486204
2.1429305 1.9558836 2.9076433 0.051094603
2.5164607 1.8891995 2.850595 0.57261109
3.1117582 1.963228 2.8920474 0.052782133
3.3859613 1.8959978 2.8641355 0.052957386
3.8957667 1.9654678 2.8754225 0.054099601
4.2829518 1.8900329 2.8404126 0.056340799
4.7392354 1.9318662 2.8450489 0.056252684
5.0236979 1.9636846 2.8594193 0.056225535
5.4800348 1.9382186 2.8339202 0.056140304
5.9402785 1.8930539 2.806536 0.057393074
6.9158587 1.9732208 2.802861 0.09423542
8.5902147 1.9927944 2.8072934 1.0401001
8.9974327 1.8890266 2.8299611 0.092629761
9.3039522 1.9503773 2.8032346 0.093233109
9.8267174 1.9338499 2.8507674 0.093045235
10.230173 1.8533895 2.8236814 0.093358278
10.569975 1.8086706 2.8051801 0.12003182
10.990292 1.9543316 2.8399997 0.090882361
11.402668 1.9694204 2.8837347 0.092557468
11.67196 1.9249673 2.8714833 0.095524266
12.063109 1.8294153 2.836473 0.095983326
12.418131 1.7396597 2.8025112 0.096363313
12.883492 1.8525805 2.8575706 0.59367359
13.441963 1.9407943 2.8781612 0.095305659
13.863382 1.8497291 2.844698 0.095907032
14.105022 1.9911838 2.9130397 0.096732289
14.469416 1.921437 2.8876061 0.096992284
14.847467 1.8451269 2.8572955 0.09724164
15.258492 1.7633123 2.8262391 0.097492993
15.707461 1.8091753 2.8269844 0.096636429
16.096861 1.8310549 2.8266971 0.13869078
16.682108 1.8458003 2.8911228 0.68887258
17.027359 1.8842399 2.9206574 0.66032112
17.492521 1.8708527 2.9462461 0.57496893
17.662266 1.8583834 2.8616652 0.46951294
18.026194 1.9777558 2.8392806 0.56578499
-2.436209 2.1967006 3.0219789 0.29689622
-2.3118567 2.292635 2.9605026 0.056653962
-1.8743985 2.2829099 2.9533353 0.054795075
-1.3757319 2.2451801 2.9425929 0.052097987
-0.88498676 2.1455035 2.9025707 0.057616755
-0.70459175 2.2074053 2.9248905 0.057812482
-0.26911131 2.2913914 2.9493582 0.057678811
0.062907994 2.1428947 2.9000816 0.056705322
0.51946998 2.323709 2.9626284 0.054029521
0.94499552 2.1737034 2.9101603 0.05641317
1.2826698 2.3469489 2.9746857 0.056244869
1.8126047 2.2810025 2.9838636 0.053193703
2.2940168 2.3766158 3.0142751 0.056324501
2.5265965 2.277473 3.0158298 0.052455619
3.1466403 2.3015051 3.0123918 0.053924754
3.445683 2.3087165 3.0093541 0.054361269
3.8338923 2.1220889 2.9329586 0.054484885
4.236444 2.2631335 2.9885352 0.055254657
4.6784902 2.260891 2.9779329 0.056456499
5.0746603 2.1338854 2.9215217 0.056796607
5.3048668 2.1526189 2.9216795 0.056554362
5.8273907 2.2792001 2.9635594 0.058104724
6.2575684 2.2190876 2.9268007 0.059171326
6.6617584 2.2578955 2.9352026 0.061994784
6.9965205 2.3026338 2.9366331 0.068693183
7.3772211 2.2687626 2.8694787 0.070147872
7.7549129 2.1939306 2.8874593 0.075895339
8.2545662 2.277983 2.8518763 0.078246996
8.5342522 2.2903736 2.8711798 0.082939342
8.9843693 2.3407841 2.9053087 0.083674416
9.4525471 2.1656232 2.8858719 0.084749073
9.7686768 2.1644139 2.9495311 0.092618331
10.277428 2.2585721 3.0019727 0.09355747
10.5595 2.1894774 2.9614477 0.093256861
10.951046 2.2885263 2.9883595 0.093015477
11.483021 2.2345331 2.9228127 0.088923305
11.981913 2.3903394 3.0644252 0.094852507
12.128536 2.3283958 3.0346661 0.094970137
12.477948 2.3046823 3.0346913 0.096886732
12.933018 2.2170515 2.9993844 0.095797479
13.305683 2.1491251 2.9747045 0.09804599
13.752815 2.1162825 2.973279 0.26436907
14.116344 2.0443449 2.9243021 0.096162118
14.617876 2.3408818 3.0441368 0.095102713
15.02659 2.3089437 3.035903 0.095478944
15.330462 2.2985404 3.0348256 0.096221983
15.786648 2.2428756 3.0144584 0.096391939
16.186626 2.2449965 2.9853897 0.095006578
16.563568 2.1297338 2.9758515 0.10460586
16.963081 2.3371015 3.0673876 0.097395599
17.552601 2.2588718 3.0374603 0.097686663
17.681988 2.1306896 2.90676 0.10184577
18.026882 2.3792896 2.8897977 1.0320514
-2.4308414 2.6068718 3.0981123 1.0413934
-2.284946 2.7362714 3.0542963 0.057417877
-1.9064357 2.6815944 3.1043396 0.22330409
-1.396419 2.685576 3.1014042 0.18355064
-1.0411956 2.5598197 3.0705132 0.058363792
-0.68944108 2.6079049 3.086421 0.058107294
-0.12979299 2.7131846 3.1279204 0.059149016
0.14151056 2.5646152 3.0626206 0.059243701
0.55239433 2.5709724 3.0648618 0.056507416
0.92492265 2.5341201 3.05337 0.054445054
1.4273508 2.5827541 3.0727229 0.055298977
1.7670057 2.6559596 3.1011536 0.055395301
2.2565005 2.6246624 3.0826502 0.057313312
2.6353126 2.7127042 3.1144824 0.0568811
3.1009939 2.6776173 3.1396194 0.054964945
3.3027954 2.7292938 3.1429062 0.057829898
3.8103995 2.5168865 3.0767722 0.055954993
4.2340927 2.6489367 3.1108818 0.058115769
4.5687237 2.6208 3.1086023 0.065851383
4.8695164 2.565671 3.0861635 0.0582752
5.3292866 2.6074102 3.0758257 0.062330514
5.8236537 2.6332786 3.1009591 0.058448125
6.2840924 2.5691071 3.0798416 0.074609339
6.7063751 2.7420485 3.123373 0.060132265
7.0775266 2.6475563 3.0805378 0.061725698
7.4444218 2.6188278 3.0126638 0.066510648
7.7336283 2.6296215 3.0316403 0.064243883
8.0893106 2.7389996 3.0382199 0.073329352
8.5969534 2.6515057 3.0344923 0.070684291
9.0758514 2.5418799 3.0711064 0.08706288
9.4507256 2.4395287 3.0639577 0.091873214
9.7577515 2.6020713 3.0952039 0.08903259
10.103327 2.7120581 3.1844242 0.092312105
10.603619 2.6243312 3.1490164 0.093014054
10.973957 2.5642016 3.1011453 0.094868109
11.454382 2.4961171 3.0987282 0.094676778
11.796367 2.4454432 3.0798881 0.094428055
12.196761 2.5629704 3.1019015 0.09271501
12.700651 2.6279349 3.1470799 0.094283998
13.019463 2.6481299 3.1633432 0.094597027
13.427435 2.5762982 3.1367407 0.094769642
13.740751 2.5372398 3.1367893 0.37326401
14.343484 2.5746894 3.1431651 0.095666215
14.577947 2.6374493 3.175344 0.095942654
15.003444 2.5877118 3.1595321 0.096299991
15.434447 2.5320067 3.1380525 0.096489035
15.915244 2.4740317 3.1190748 0.096740223
16.354147 2.4660349 3.1033068 0.096254297
16.420994 2.4094191 3.0949316 0.096983559
16.932968 2.587574 3.1607938 0.34545538
17.451891 2.5134845 3.1053081 0.136935
17.619549 2.6843407 3.0706444 0.34629974
18.003315 2.4868753 2.9456081 1.0298288
-2.4873393 2.8267097 3.124536 1.0463837
-2.1656022 2.8284507 2.9420137 0.29917321
-1.7640098 2.8677981 2.954854 0.057890043
-1.2985773 2.8970499 2.987206 0.55059958
-1.0098262 2.9384899 2.9410107 0.059139747
-0.55589569 2.9306982 3.0565181 0.060493596
-0.25347719 2.9950843 2.9531422 0.060953449
0.14798675 3.0131121 2.9943931 0.060449395
0.55699575 3.0457606 2.9947243 0.061293092
0.88279963 3.0371523 3.0699615 0.061959527
1.3132932 3.1207094 2.957968 0.060842428
1.7638245 3.0451059 3.1215134 0.26320961
2.2591434 2.984947 3.185024 0.057831816
2.5683775 2.9333596 3.1839657 0.056942832
2.901376 2.8596458 3.1742048 0.05634103
3.3179417 2.902976 3.1819539 0.060079888
3.8390706 2.8146358 3.1810026 0.076132059
4.1137924 2.9693065 3.1352346 0.061067738
4.6126966 2.9614983 3.1378961 0.061255127
5.0790739 3.058707 3.1876068 0.060366072
5.3239059 2.8835721 3.1943965 0.058799364
5.707881 2.8631516 3.1628876 0.059817478
6.1074724 2.8846812 3.18084 0.059944399
6.623848 2.8636498 3.1451936 0.062167842
7.0967026 2.9038167 3.1351285 0.064433306
7.4366446 2.8781905 3.1595342 0.062668137
7.8014188 3.0038366 3.1362247 0.10346952
8.1609573 2.8843799 3.0811625 0.10142078
8.6304741 2.9854748 3.1611443 0.080197133
8.9608707 3.1226089 3.1803241 0.076768175
9.3485374 3.0008254 3.1445725 0.074480407
9.9402885 2.8531022 3.0992315 0.077065311
10.263563 2.8783274 3.1266026 0.56159157
10.623658 2.8486824 3.1453247 0.2052826
11.070545 2.9012489 3.1878252 0.31962526
11.431288 2.9112129 3.1829486 0.087980047
11.651575 2.8780611 3.1770153 0.08717104
12.283327 2.894649 3.1288371 0.10608621
12.683645 2.8543491 3.1647592 0.20094356
12.933892 2.8526263 3.1526942 0.14304705
13.560516 2.9951973 3.1734233 0.087734148
13.820341 2.9417603 3.192899 0.089070246
14.24749 2.8775015 3.1840239 0.090063244
14.584564 2.8682976 3.1729116 0.089970946
15.081806 2.9115348 3.1918697 0.089462936
15.370869 2.903903 3.188868 0.09047465
15.805428 2.8524258 3.173707 0.091020316
16.183353 2.9481144 3.1451678 0.088134632
16.561085 2.9447877 3.1737671 0.090018839
17.057951 3.0826178 3.171308 0.087143555
17.593491 2.8605647 3.182385 1.0356997
17.602856 2.8541117 3.1818938 1.0829664
18.008556 3.0373826 3.1596932 1.0281634
-2.0224216 3.204433 2.8185406 0.068281732
-1.6703391 3.217782 2.8433409 0.089851469
-1.3681955 3.2052314 2.8353825 0.4942013
-0.83094728 3.2381859 2.8033466 0.33152482
-0.54788762 3.2493105 2.8491101 0.28425667
-0.024820128 3.2365208 2.9066916 0.4921425
0.29766139 3.2054124 2.8144264 0.59515512
0.74308932 3.2280402 2.814415 0.14576955
0.97082245 3.2451668 2.814945 0.09495496
1.4083718 3.2474298 2.8695564 0.17064683
1.8079355 3.2701194 2.8905914 0.45610315
2.1063731 3.2807369 2.8797936 0.79630762
2.4995525 3.288558 2.955682 0.29047677
2.9453502 3.3613079 2.8473744 1.0510272
3.3362875 3.361711 2.9822302 0.086336002
3.7546437 3.4155264 2.9146895 0.55435181
4.1342735 3.468267 2.9580846 0.9904381
4.6682663 3.5369265 2.9170184 0.55665457
5.1065044 3.5471258 2.9830112 0.56191385
5.2589417 3.5877452 2.9456773 1.0547576
5.8043814 3.5092752 3.0999956 0.32064193
6.1804085 3.586175 3.1885448 0.072305724
6.5910306 3.5289373 3.0727272 0.080331162
6.9840717 3.2426007 3.1985064 0.071177959
8.6367207 3.3140864 3.1987076 1.0268173
9.7331285 3.2121892 3.1860445 1.0340853
11.519914 3.3105066 3.1967716 1.0328321
11.930245 3.2410359 3.1954975 1.0368423
12.258965 3.2599113 3.1636591 1.03302
12.461275 3.2253273 3.1468749 1.0331955
12.915028 3.2150538 3.1325588 1.0320694
13.374176 3.2307429 3.1434464 1.0318536
13.837109 3.278713 3.1545627 1.0322682
14.520702 3.2744114 3.1673436 1.0324405
15.063352 3.2118497 3.16205 0.55767548
15.453839 3.2270925 3.1809666 0.081484944
15.925814 3.2668421 3.191257 0.20153502
16.358683 3.2524347 3.1963243 0.083359286
16.727604 3.2501612 3.1922193 0.091347449
17.076248 3.2396262 3.1877441 0.089312449
17.552673 3.2614951 3.1927006 0.089692764
17.623573 3.232585 3.1753864 0.084862784
18.042629 3.4164605 3.1825395 0.56282377
-2.0085783 3.6180069 2.8381653 0.085714214
-1.8246322 3.7015796 3.0561039 0.21922064
-1.5211498 3.6667194 2.9386652 1.0293385
-1.0213189 3.6792469 2.8988018 0.26222336
-0.59677964 3.7036324 2.9693224 0.61793756
-0.098374166 3.7062259 2.9584937 0.66942632
0.2898047 3.7345817 2.9005411 0.64859462
0.55897611 3.6658792 2.8647432 0.11018821
0.94315016 3.6939359 3.04298 0.50076073
1.3497972 3.7665386 2.9612527 0.21615332
1.8396121 3.7113709 3.0683961 0.13459599
2.2610621 3.7243743 3.0539582 0.13615149
2.5700016 3.7129929 3.0670557 0.12480941
3.0058742 3.6499915 2.9217339 0.068725407
3.4310601 3.610137 2.8093553 1.0545312
3.7404864 3.6127601 2.8118129 1.0478238
4.3359156 3.613795 2.8388305 1.048533
4.59167 3.6190937 2.8122821 1.0576123
4.9513659 3.6273146 2.8544562 1.0572582
5.3397422 3.6494951 2.8205547 1.0558963
5.8565664 3.6802304 2.8431861 1.0502385
6.22616 3.7021227 2.8488462 1.0271792
6.5492334 3.7242317 2.8302746 1.0275371
7.015079 3.7251549 3.0384073 0.068527326
7.3730707 3.6526287 2.9185038 0.078782246
7.8555326 3.6696777 2.9501538 0.086336352
8.2493362 3.694345 2.9824986 0.087217599
8.571722 3.7642593 2.8774986 0.088683128
9.0534077 3.8013992 2.8806021 0.089601032
9.3460026 3.7685657 3.0208588 0.089944318
9.6563816 3.7774348 3.0958879 0.084818795
10.311321 3.8748784 2.9367366 0.54184532
10.640269 3.8973892 2.9344509 0.54591507
11.162359 3.9180541 2.9865808 0.52105129
11.572286 3.9019623 3.0797377 0.76130211
11.927074 3.9483421 3.0852532 0.42698306
12.340551 3.9630232 3.1126993 0.59425533
12.730183 3.9909785 3.107342 0.72214711
12.871397 3.9931417 3.1530595 0.086711206
13.339689 3.9338586 3.124263 1.0308433
13.95383 3.789741 3.040206 0.55140084
14.318316 3.7659371 3.0670071 1.0995966
14.522833 3.8997934 2.9223654 0.55561972
15.145474 3.8296456 2.9144859 1.0283313
15.462225 3.8016577 3.0252025 1.0861746
15.688284 3.7993445 2.9542732 1.0973353
16.260006 3.8104279 3.0033131 1.0275471
16.639767 3.8429136 2.8849955 1.0757742
16.907812 3.8915458 2.9138312 1.0592022
17.465414 3.9211493 2.9637594 0.082957476
17.608036 3.7374682 2.9493222 0.085353173
18.008007 3.7322941 2.9018946 0.06289129
11.495595 4.0194197 2.903183 0.25822881
11.880989 4.0256686 2.930301 0.39683962
12.115023 4.0434465 2.9938631 0.21183501
12.774673 4.0024118 3.0892591 0.76053882
13.180592 4.0210896 3.1568105 0.43164149
13.496811 4.0633516 3.1240296 0.44819906
13.79177 4.1401477 2.9838264 0.59504956
14.104908 4.2415166 2.8352509 0.29879516
14.526743 4.1393738 3.1920907 0.095453717
14.815471 4.2047958 2.98241 1.0960035
15.51516 4.2088337 3.1040351 1.0962005
15.664249 4.3890586 2.8093996 0.095725343
16.121128 4.3589168 2.9537101 0.66964078
16.651752 4.3608136 3.0148411 0.85141087
17.009951 4.3578534 3.0104718 0.9366709
17.510128 4.3461866 3.00033 0.63935578
17.611568 4.0543509 2.9151583 0.2523692
15.735576 4.4500799 2.8697534 0.09223032
16.314846 4.4459372 2.8030822 0.095487818
16.503611 4.436872 2.8780479 0.091697931
16.834387 4.4127569 2.9117453 1.0546019
17.515087 4.4255228 2.864656 0.59636831
-1.6740158 1.8999786 3.2038002 1.0912275
-2.029459 2.3253822 3.2455008 1.09198
-1.8583672 2.2274773 3.2222953 1.0754327
-1.4030948 2.2980123 3.2231364 1.0656639
-0.94356883 2.31672 3.2583251 1.0749062
-0.71204638 2.2209725 3.3051829 1.0917292
-0.2451171 2.3653257 3.3481126 1.09198
2.0961971 2.3802252 3.2012193 1.0556393
13.788224 2.3999145 3.2036972 0.047118187
15.105838 2.323761 3.2301843 0.045614243
16.736172 2.3626883 3.2449899 1.0939846
16.933157 2.2212121 3.225306 0.04511261
17.400391 2.3849902 3.227849 1.095614
-2.4671493 2.7603183 3.2845573 0.063913971
-2.1993027 2.7805433 3.2323205 0.42229789
-1.7679005 2.7684793 3.2524152 0.048622042
-1.5429633 2.6497676 3.2128325 0.079825647
-1.0982462 2.7514143 3.2389069 0.049146924
-0.54264128 2.7603545 3.231245 0.049632177
-0.19930089 2.7802145 3.2337196 0.049995363
0.16007721 2.7773786 3.2248611 0.050368395
0.52737767 2.7288852 3.2233391 0.050750412
1.0184937 2.77126 3.2157094 0.051366277
1.4787409 2.7793565 3.2347364 0.051877245
1.8099141 2.7692885 3.223073 0.052233554
2.1131673 2.7691355 3.2174134 0.052805588
2.7210069 2.7810531 3.2108667 0.053866632
2.8967969 2.7672744 3.2157307 0.053383589
3.3863997 2.7550824 3.2394228 0.55526328
3.761548 2.7385702 3.2209477 0.55438614
9.7345028 2.7720127 3.2042089 0.091729164
10.353291 2.7992938 3.2008557 0.091478348
11.183462 2.7820868 3.2251978 0.049561739
11.450375 2.7792363 3.2256351 0.049850851
11.811054 2.7813752 3.2140217 0.050316665
12.267134 2.7650304 3.213892 0.088682204
12.540021 2.6436229 3.2084014 0.58556288
12.883852 2.7021594 3.2291784 0.5754385
13.531511 2.7707829 3.2279761 0.095532283
13.859335 2.727674 3.2114425 0.10877658
14.242441 2.6858644 3.2166295 0.30310154
14.514912 2.7263453 3.2709174 0.65350878
14.920582 2.7594118 3.2249503 1.0279193
15.313355 2.6338172 3.2233474 0.86676949
15.880589 2.6932745 3.2335901 0.74549794
16.23913 2.7562251 3.2728209 1.053753
16.566273 2.6826501 3.2680821 0.74086595
17.084988 2.6885343 3.3585355 1.0765313
17.428669 2.6904135 3.36516 1.0906601
17.673605 2.5373755 3.238874 0.97366375
18.046078 2.6633267 3.2743149 1.0382733
-2.4578946 2.952956 3.3316402 0.18897167
-2.2058182 2.9401207 3.2075186 0.051503677
-1.7521205 2.9157391 3.2196398 0.052694034
-1.4115404 2.8973083 3.2065456 1.0207931
-0.93552494 2.9052544 3.2082705 0.9866097
-0.59642774 2.962707 3.2421491 0.51310098
-0.22249939 2.952729 3.2072244 0.2129973
0.23312458 2.9733605 3.2080812 0.11863144
0.62544942 3.0012572 3.2448797 0.057151403
1.1252203 3.0437512 3.2512822 0.059385527
1.4980247 3.0862718 3.2782807 0.060419179
1.9125844 3.1313806 3.3022237 0.061408788
2.244957 3.1173415 3.279654 0.065087713
2.5672317 3.108232 3.2424955 0.066845506
3.0336223 3.0670509 3.2722023 0.058024656
3.385973 3.1109438 3.3032255 0.056578632
3.6922393 3.0999868 3.2957091 0.057224408
4.1217337 3.068748 3.2596447 0.060010739
4.6114917 3.0650277 3.2553725 0.06131693
5.0732574 3.0178354 3.2640452 0.059091982
5.3041081 3.1027546 3.2833505 0.060440928
5.9502354 3.1009467 3.2816675 0.058736842
6.2401819 3.0795631 3.2765181 0.06058079
6.5991173 2.9772859 3.2180862 0.062496647
7.0133138 2.9597228 3.2263682 0.073420912
7.3346128 3.063745 3.2297463 0.074959755
7.8054399 3.116375 3.2502646 0.070154063
8.2433128 3.0847976 3.2640796 0.08869943
8.5118141 3.0461369 3.257138 0.0931077
9.01087 3.0054288 3.2379031 0.56635308
9.4825726 2.9163094 3.22505 0.33001244
9.8393917 3.1679511 3.3603091 0.091071248
10.149197 3.1404414 3.354856 0.093215108
10.506654 3.0974531 3.3398752 0.091977827
11.121052 3.027416 3.3017445 0.092240311
11.521846 2.9975767 3.3065491 0.093440764
11.960674 2.9527411 3.2927244 0.093827143
12.367354 2.9074168 3.277072 0.094234385
12.776643 2.860425 3.2604392 0.094611079
13.180788 2.9079759 3.3774562 0.99301672
13.259918 2.9219947 3.3390586 0.52270317
13.795827 3.1586983 3.3979108 0.2606509
14.313755 2.9766212 3.3734925 0.72140658
14.654593 3.0433466 3.4566126 1.097615
14.987349 3.1154122 3.3880901 0.24805409
15.35288 3.1126776 3.3507071 0.094710574
15.799648 3.1012592 3.4140265 0.4711585
16.174963 2.8314624 3.3545656 1.0446124
16.465315 3.0294662 3.4506569 1.0599221
16.951488 3.0751801 3.4007502 0.40810585
17.593628 3.0311856 3.2117333 0.096970648
17.61134 3.0413599 3.2230723 0.12771764
18.014238 3.0146556 3.2531552 0.92064154
-2.0822806 3.2501302 3.4224954 1.0364392
-1.9314187 3.2164702 3.4220219 1.051739
-1.3983673 3.2035275 3.2034895 1.0521307
-0.95904249 3.2122097 3.4003868 1.0388632
-0.53737819 3.2821498 3.336359 0.09962523
-0.30527151 3.2234206 3.4126687 0.068482958
0.31097975 3.2156911 3.2585444 0.43524128
0.57695907 3.2273018 3.4155936 0.1020379
1.0625145 3.247463 3.4301338 0.056034148
1.462955 3.2191241 3.3583474 0.056163572
1.8526973 3.2187831 3.3360217 0.055287182
2.3310239 3.2213397 3.3355503 0.05866849
2.7381082 3.2187421 3.31919 0.06088369
3.057585 3.2579789 3.3515344 0.062405426
3.4237926 3.2466946 3.3526669 0.066009462
3.889452 3.2823086 3.353179 0.067050703
4.1769962 3.3108592 3.3711324 0.067816854
4.4783158 3.3173931 3.38113 0.069295675
5.1587152 3.3867431 3.4053445 0.072651573
5.4221253 3.3900933 3.4217279 0.077541724
5.9423051 3.3927159 3.4333329 0.080610432
6.0610571 3.4197195 3.4496102 0.080508128
6.5844026 3.480042 3.4507775 0.078792095
6.9900084 3.4808187 3.4387908 0.081524551
7.4404082 3.5367184 3.4734511 0.08153531
7.8907614 3.5185509 3.4169846 0.084176451
8.2742825 3.5557337 3.4639554 0.086581811
8.5345287 3.5755634 3.4814479 0.085261434
8.9841347 3.5648701 3.4582415 0.088843241
9.3470306 3.2385063 3.3867335 0.089712605
9.8901863 3.3707495 3.2846985 0.071666278
10.341972 3.5129147 3.4450626 0.08429604
10.556365 3.3119869 3.3884597 0.088630959
11.043482 3.5210352 3.4476933 0.0866016
11.51203 3.5570321 3.5373435 0.092349842
11.951167 3.5366445 3.5308018 0.092819214
12.37318 3.515594 3.5235226 0.09323281
12.797117 3.4971936 3.5168643 0.093605287
12.823729 3.4893403 3.5195394 0.10926634
13.403218 3.4216309 3.5368564 0.42618033
13.938723 3.437561 3.4997883 0.094485812
14.316179 3.4186873 3.4946213 0.094735935
14.790555 3.3244243 3.5221634 0.59623897
15.097208 3.4120142 3.5642834 0.59604955
15.591758 3.3465924 3.4697814 0.095478356
15.626564 3.3565307 3.4733915 0.12623364
16.097725 3.320308 3.4620175 0.095737159
16.677139 3.2735057 3.5064244 0.59682852
17.051899 3.4918075 3.4783549 0.093103491
17.218189 3.2567244 3.4411283 0.09623909
17.665714 3.466372 3.3874764 0.089261606
18.043972 3.5470157 3.3109009 1.0314918
-2.0566325 3.6838498 3.2398319 1.1177591
-1.8321882 3.6222739 3.2973895 0.32509473
-1.3873776 3.6600327 3.2400856 0.21152866
-0.9793371 3.6910377 3.3060288 0.27392966
-0.65679669 3.6602526 3.2914939 0.592857
-0.17130466 3.6692171 3.2376878 0.46125317
0.19970363 3.6425891 3.3692985 0.25862831
0.62047088 3.6328747 3.2842116 0.1491681
1.0993192 3.6525919 3.2530138 0.1962391
1.4301132 3.653075 3.2712135 0.32218289
1.8162409 3.6493418 3.2729931 0.12357646
2.1628931 3.6620216 3.3286562 0.14295553
2.6480417 3.6109495 3.350004 0.095962659
3.0464711 3.6449456 3.2872524 0.087299675
3.4838953 3.6323366 3.3621716 0.067206994
3.8516946 3.6616123 3.3271966 0.068288773
4.2097816 3.6443267 3.3629336 0.062269874
4.5218954 3.6628723 3.367789 0.063385457
5.0600061 3.6455276 3.3420582 0.072667852
5.3213873 3.6087258 3.4427261 0.060195394
5.9051819 3.6147876 3.4745784 0.059088551
6.1140757 3.6072545 3.4869184 0.060425814
6.5670133 3.6482024 3.4546657 0.06150246
7.1351285 3.6036816 3.4702191 0.067609869
7.405736 3.6896095 3.4531713 0.063563965
7.7492361 3.605226 3.4543447 0.075939536
8.272501 3.6392529 3.2684805 0.082142375
8.619463 3.6195645 3.2993736 0.087368138
9.0917568 3.6156068 3.3596489 0.089141548
9.4701729 3.6540537 3.4732561 0.089631893
9.7390213 3.6706693 3.4911134 0.085598111
10.240313 3.7242699 3.3382945 0.090730965
10.671288 3.7434425 3.365144 0.091405183
11.094845 3.7772694 3.3757253 0.091854215
11.492965 3.8017168 3.3990462 0.092230506
11.933649 3.8260465 3.4171598 0.13619551
12.045321 3.8191421 3.3049879 1.0482293
12.606626 3.8324006 3.4593065 0.59435987
13.106302 3.9483786 3.2567554 0.83216798
13.38923 3.8764508 3.5101233 0.59479886
13.741142 3.8686726 3.4909194 0.86022818
14.054781 3.9221444 3.5321116 0.59511137
14.50505 3.981086 3.5738525 0.094632059
15.006163 3.9093509 3.5128257 0.9853192
15.348574 3.9057424 3.5379195 0.59289598
15.806576 3.8022392 3.5504329 0.42608467
16.250731 3.8742647 3.5727963 0.63606322
16.603985 3.6661799 3.5401883 0.092214793
16.901791 3.7528777 3.545414 0.091446921
17.513439 3.8860614 3.4470305 0.48789233
17.642174 3.7079811 3.409781 0.086487025
18.021519 3.6522789 3.3756933 0.907897
12.763273 4.0094275 3.2067869 0.091729164
13.137595 4.0384731 3.2644515 0.088266052
13.433292 4.0277319 3.2570562 0.13437681
13.839068 4.0380211 3.2772951 0.47900894
14.102604 4.0709157 3.2640111 0.40605408
14.458189 4.0505362 3.2589931 1.0540012
15.067149 4.1012368 3.3549135 0.34511137
15.458586 4.1067815 3.2873957 1.0248981
15.735881 4.1236744 3.3832562 0.59586185
16.31394 4.2419734 3.242924 0.59598976
16.654718 4.2014513 3.3292425 0.74893403
17.127775 4.2696323 3.3303084 0.59619659
17.513742 4.1830368 3.3133585 0.59438968
17.626844 4.1646719 3.5191259 0.082769334
-1.7043561 3.1130397 3.6462417 1.0907269
-1.2548822 3.1831107 3.6311612 1.0929823
-1.0543427 3.1265621 3.6015532 1.0929823
-0.17114986 3.1767375 3.6011178 1.0932331
17.085897 3.0956447 3.6069105 1.0929823
-2.0353041 3.489876 3.7046287 1.0937347
-1.7076764 3.4455476 3.8275609 1.0907934
-1.4042745 3.383544 3.6586623 1.0911337
-1.1169975 3.302403 3.6759899 1.0923558
-0.56408381 3.3661098 3.6560113 1.0732056
-0.23195225 3.340457 3.6620917 1.075454
0.15602434 3.3815789 3.6142178 1.0944793
0.43803763 3.4617636 3.6345923 1.0913372
1.1282133 3.4560051 3.6214218 1.0923865
1.4971237 3.5047181 3.6338212 1.0949945
1.6906363 3.5016832 3.6258879 1.0952377
2.0890508 3.5564823 3.644326 1.0951128
2.6032262 3.5570011 3.6322818 1.0955513
2.9822092 3.5002003 3.6182489 1.094642
3.8020725 3.5033472 3.6353188 1.0952696
4.2605848 3.5478735 3.6434619 1.0956135
4.6557875 3.5886426 3.6108859 1.0964909
5.1282401 3.5883675 3.6066949 1.0968671
13.090994 3.4411211 3.6032841 0.04588281
13.447648 3.4525614 3.6839404 0.045865059
13.719792 3.5881405 3.7117972 1.0964909
14.323296 3.3619986 3.6323178 1.0959902
14.610006 3.5309896 3.6472867 0.84586477
14.903174 3.4915054 3.6686506 0.83317649
15.338931 3.4629986 3.6704285 0.92153287
15.825426 3.4591827 3.6261642 1.0733085
16.223137 3.4529715 3.6535926 1.0131369
16.645203 3.4877677 3.6949019 1.0745438
17.00246 3.4940248 3.672133 1.0977374
17.265701 3.439574 3.6624722 0.96775532
17.77829 3.5702429 3.6363943 1.0537429
18.044376 3.527349 3.6395903 0.80250645
1.5436159 3.6026778 3.672281 1.0952377
2.0210879 3.6279593 3.6664822 1.0954885
2.5262494 3.6114399 3.6569548 1.0957394
2.9553015 3.6479769 3.6631858 1.0959902
4.2730074 3.6165092 3.6122723 1.09624
4.6192856 3.6124411 3.6170318 1.0964909
5.0196209 3.6178744 3.6088464 1.0968044
5.8350496 3.6309829 3.6065233 1.0974941
6.1084213 3.6318507 3.6057925 1.097744
11.328368 3.6494994 3.6074727 0.048621178
12.090916 3.7536931 3.6160302 0.069862247
12.68359 3.8288155 3.6112633 0.085996091
13.108816 3.8350601 3.6149712 0.090476036
13.399268 3.7760653 3.6957035 0.59382802
13.854437 3.7712662 3.7968881 1.0957496
14.059293 3.8489175 3.659822 0.59719729
14.703977 3.8786445 3.6652002 1.0960968
14.963242 3.8546817 3.6998177 0.7901395
15.349608 3.7668142 3.7971876 1.0968593
15.841891 3.9324765 3.7221406 0.64763522
16.306101 3.8628361 3.7252588 0.34377569
16.545525 3.9355943 3.7862487 0.7179684
17.127455 3.8403916 3.7551451 0.73188078
17.296982 3.7436085 3.789258 1.097329
17.667702 3.8723273 3.6460929 0.095792204
18.097889 3.6084683 3.6613884 1.054637
14.613233 4.0257726 3.7056901 0.092481136
15.026925 4.0476484 3.6731172 0.092105389
15.637295 4.0493994 3.6412969 0.094857931
16.286087 4.0868621 3.6781559 0.094983861
16.657999 4.020155 3.7165587 1.0965018
17.025928 4.132946 3.7240343 0.095404655
17.522728 4.0990376 3.6996226 0.14152169
17.609226 4.007473 3.9139209 1.0972433
-1.6136518 -4.9589696 -2.705934 1.0326114
-1.2459886 -5.2345533 -2.8618145 0.50294381
-0.30736065 -5.2841196 -2.8417664 0.86397165
0.67896122 -5.1707401 -2.8799756 1.0340445
1.1373334 -5.138061 -2.8045025 1.0046757
2.0056794 -5.0890536 -2.6792738 0.97138351
2.7917113 -5.1157227 -2.5421038 1.0322899
3.5402067 -4.8928881 -2.4364772 0.66267443
4.655242 -5.0155935 -2.4551606 1.1215184
5.3071032 -4.9661665 -2.4446471 1.1215189
5.9458065 -4.9209352 -2.4326701 1.12119
6.8309221 -4.8531375 -2.4301472 1.1195548
7.3218055 -4.8110037 -2.4266779 1.1199429
-1.6029261 -4.2873945 -2.943059 1.0265813
-1.5892123 -4.3604555 -2.9708366 1.0330102
-0.58047014 -4.7336483 -2.8889976 0.96760213
0.21434674 -4.6006093 -2.7561474 0.53866065
1.2881825 -4.6725531 -2.9020233 1.0102051
2.1622498 -4.0103321 -2.4952779 0.040705308
2.6636333 -4.7795477 -2.7296841 0.16361183
3.5583644 -4.3461685 -2.4928672 0.28050131
4.3709941 -4.3585768 -2.4997125 0.034220263
5.4673681 -4.2463279 -2.5540662 0.1178092
6.1609974 -4.2539806 -2.5179477 0.21897079
6.900178 -4.2277341 -2.5533745 0.13789156
7.9448295 -4.7448525 -2.4566679 1.118772
8.7146339 -4.3707142 -2.4999266 0.61680967
9.5931873 -4.542098 -2.5673974 0.77411294
10.004996 -4.4995694 -2.5402317 0.74853116
11.130539 -4.461977 -2.5094616 0.7128911
11.895845 -4.3376083 -2.526041 0.71753603
12.689468 -4.3721166 -2.4150991 0.74771738
13.194404 -4.2946424 -2.508142 0.87266636
14.388964 -4.096118 -2.4078689 0.72018653
14.435026 -4.0927305 -2.4210491 0.73261249
15.534363 -4.1143003 -2.4742539 1.1001071
16.504772 -4.058074 -2.4933836 1.0984477
16.907646 -4.0504589 -2.5028129 1.0992198
17.669123 -4.1145654 -2.4502726 0.79347301
-1.6480873 -3.8113518 -2.4447768 1.0391102
-0.87783748 -3.3195863 -2.4288239 1.1091001
-0.51122642 -3.556181 -2.5144644 1.0406643
0.57119966 -3.7969298 -2.6082566 1.0401003
1.1003609 -3.8510623 -2.4792566 0.28533846
2.1699882 -3.9926507 -2.4862185 0.034804855
2.4725528 -3.8119316 -2.4169693 0.063842967
3.3329313 -3.6973779 -2.5220337 1.041604
4.2563295 -3.7297306 -2.5451212 1.041832
5.2291441 -3.8849626 -2.4077644 0.11885089
5.7165775 -3.9798515 -2.4282408 0.11774956
6.8314877 -3.8850179 -2.4254069 0.11731526
7.8065486 -3.9011679 -2.4231892 0.11633839
8.5574245 -3.9179313 -2.4085982 0.11156626
9.1311798 -3.7991996 -2.4351916 0.36267728
9.8619003 -3.8465862 -2.4538293 0.36018908
10.551929 -3.9416397 -2.478159 0.35951349
11.843112 -3.7609959 -2.4460564 1.1029553
12.597008 -3.8954349 -2.4785025 0.47631049
12.980604 -3.6660142 -2.4226558 1.0993342
14.021427 -3.7451572 -2.4657862 0.97645521
14.682908 -3.6642118 -2.4512353 1.1043341
15.646944 -3.9363086 -2.506259 1.091547
16.483065 -3.8606591 -2.4476199 1.0981439
16.845289 -3.8544312 -2.4473727 1.0974853
17.807098 -3.8299785 -2.4709291 0.91379833
-1.6066015 -3.1924965 -2.4202042 1.1097745
-0.86913168 -5.8856983 -1.6214904 1.0358713
-0.25160295 -5.7726068 -1.6939759 1.0342511
0.23064178 -5.6713791 -1.8179171 1.0328355
1.1739943 -5.6429539 -1.7028053 1.0311399
1.8023939 -5.6276045 -1.6306322 1.0294468
-1.6041932 -4.8573637 -1.686342 1.0378499
-1.3136814 -5.2511468 -2.1093707 0.98819619
-0.0060876003 -5.4661207 -2.3770406 1.0349164
0.61889237 -5.4381089 -2.3218002 1.0339665
1.5606118 -5.391407 -2.2479527 1.0323884
2.3710241 -5.3481998 -2.1926126 1.0308833
3.11606 -5.2867432 -2.1880693 1.0293999
3.9504325 -5.2468939 -2.1209116 1.027626
4.7207379 -5.353837 -1.748997 1.0259204
5.5405483 -5.2962303 -1.7227106 1.1240914
6.3323641 -5.0719719 -2.0570996 1.1223135
7.1028194 -5.024683 -2.0174053 1.1206529
7.9262781 -4.9779129 -1.9659631 1.1189744
8.7203407 -4.8955884 -1.9978578 1.1174541
9.4883747 -4.8211222 -2.0146344 1.1161041
10.357397 -4.8284245 -1.8360224 1.1147795
10.514684 -4.8970847 -1.6780133 1.019278
11.399683 -4.83992 -1.6552584 1.0081617
12.257531 -4.820118 -1.628139 1.1189108
12.949332 -4.8115845 -1.6998451 1.1223671
13.857027 -4.8039851 -1.6165714 1.0908649
14.464645 -4.84238 -1.6862435 1.0306304
15.343872 -4.8278704 -1.7088017 0.94524121
16.452225 -4.8076959 -1.6411602 1.0732218
17.228443 -4.8088121 -1.6368674 1.0269969
17.727846 -4.8219328 -1.7032847 1.0196152
-1.6157858 -4.2849598 -2.1795888 0.51245767
-0.85272026 -4.7852869 -2.2782664 0.1033289
-0.20301071 -4.2355394 -2.1938653 0.55870163
0.11418115 -4.2459331 -2.2808285 0.29918498
1.3857831 -4.7809868 -2.2561963 1.0447869
1.8116701 -4.7830691 -2.3230824 1.0679195
2.7676024 -4.7221146 -2.3258681 1.0702747
3.5845804 -4.5782127 -2.3310554 0.80088121
4.5634727 -4.1387563 -2.3614469 0.20310573
5.1178794 -4.2272539 -2.3673627 0.16165189
5.7341499 -4.0359154 -2.3892055 0.098231226
6.8748622 -4.4557037 -2.3563561 0.47323066
7.7769256 -4.7207499 -2.3674126 0.6590265
8.4988098 -4.7526541 -2.3717673 0.86881447
9.2798214 -4.7037106 -2.2342534 0.90444267
9.8668013 -4.7076035 -2.1936636 1.0062873
11.109724 -4.7585435 -1.8586882 1.1136906
11.896713 -4.6527834 -1.9401932 0.86707163
12.697908 -4.6222687 -1.8664083 0.73886138
13.469872 -4.4313269 -2.1348138 0.76208138
14.286278 -4.4933672 -1.8457997 0.5642333
15.083518 -4.3674293 -1.9738569 0.5458768
15.787339 -4.2863655 -2.0191114 0.60775572
16.590942 -4.2098312 -2.0232227 0.71485209
17.032894 -4.2040358 -1.9693915 0.35186011
18.113743 -4.0106044 -1.9464667 0.53206521
-1.6965313 -3.2216783 -2.0064726 0.62862492
-0.93102157 -3.2312942 -2.0821857 1.0875485
-0.58249795 -3.2467389 -1.9872606 0.035591193
0.70017552 -3.5473928 -2.3096147 0.075511709
1.4672112 -3.4912817 -2.2856927 0.035060443
1.9484291 -3.5427604 -2.3108096 0.033654455
2.9446297 -3.5455866 -2.3000402 0.031324171
3.446382 -3.2240832 -2.0493226 0.031098489
4.7222614 -3.2239828 -2.1395361 0.12075523
5.4720016 -3.7309477 -2.3619299 0.11900496
6.0706568 -3.6216993 -2.3214598 0.11874567
7.039854 -3.273695 -2.171026 0.1189386
7.6755099 -3.5526187 -2.2817507 0.11768014
8.0699558 -3.7433619 -2.357156 0.11704153
9.1078472 -3.2442017 -2.3614697 1.108686
10.191681 -3.7724748 -2.3922338 0.23511881
10.88904 -3.7156262 -2.3569021 0.23436409
11.390202 -3.6355934 -2.3239965 0.35876322
12.172958 -3.4638844 -2.3011937 0.60413319
12.918938 -3.6413035 -2.316637 0.2172036
13.90374 -3.582562 -2.2636185 0.13883081
14.892541 -3.3679254 -2.2672102 1.0985997
15.273575 -3.3640146 -2.2888255 1.1005588
16.024536 -3.6063411 -2.3922439 1.1034756
17.119343 -3.2760789 -2.230988 1.1015389
18.085424 -3.4664559 -1.9504204 0.41560265
-1.7138866 -3.1527784 -2.0083969 0.61453784
-1.3485665 -2.7148428 -2.0515273 0.57356495
-0.17389885 -2.6837382 -1.926687 0.033508591
0.61268103 -2.6665773 -1.9547992 0.036316078
1.1768492 -2.7860692 -1.9996177 0.036791883
2.2129385 -2.8130953 -2.0062895 0.034252852
3.0247386 -2.6828253 -1.9501815 0.032021251
3.7877438 -3.0078268 -2.0779352 0.029259361
4.6232457 -2.8950438 -2.0282514 0.026409622
5.4225192 -2.8538418 -2.0080428 0.12358072
6.2814922 -2.8364801 -1.9970323 0.12062592
6.9889784 -2.5246606 -1.8674692 0.11801895
7.779161 -2.7696004 -1.9632986 0.11626539
