# .PCD v0.7 - Point Cloud Data file format
VERSION 0.7
FIELDS x y z intensity
SIZE 4 4 4 4
TYPE F F F F
COUNT 1 1 1 1
WIDTH 1138
HEIGHT 1
VIEWPOINT 0 0 0 1 0 0 0
POINTS 1138
DATA ascii
7.8057709 2.5352402 0.36334997 0.10784972
8.3034754 2.635776 0.33018285 0.3572056
8.628685 2.6381407 0.17675692 0.98552626
9.0962849 2.5770059 0.14475548 0.98584783
9.4801941 2.5840611 0.14405017 0.98617893
9.8317337 2.6830287 0.14677733 1.0867683
10.253294 2.7194614 0.14594695 1.1120579
10.68125 2.7126904 0.15343513 1.0492008
11.031422 2.6126943 0.086373195 1.1123865
11.271942 2.6066232 0.081902623 1.1116126
11.718778 2.6539607 0.11992817 1.018775
12.212496 2.6087191 0.14209786 0.86581188
12.436563 2.5661376 0.047965463 1.1091473
12.976994 2.5880759 0.048145592 1.0727882
13.334522 2.533546 0.046462446 0.97075784
13.78615 2.7026396 0.086350217 1.0651252
14.272103 2.5602214 0.020108331 1.1064501
14.521801 2.7261271 0.076912344 1.0544647
15.081189 2.5376081 0.2915287 0.38691181
15.475605 2.7032404 0.083440036 1.0194194
15.775336 2.6710284 0.14814793 1.1026411
16.317444 2.6185265 0.039199688 1.013849
16.458492 2.6277511 0.020361286 1.1087329
17.044376 2.6395793 0.22680002 0.54307878
17.288475 2.6298451 0.1640455 0.78535402
17.86731 2.5814264 0.10702741 1.0372182
18.013241 2.6786451 0.39259872 1.0588655
-2.0868545 2.8644254 0.35765105 0.25395036
-1.8264229 2.8577945 0.3354716 0.83665413
-1.2827203 2.9052134 0.35976791 0.78773499
-0.96010399 2.8493476 0.36377257 0.47519058
-0.57633555 2.8431959 0.35601038 0.097287863
-0.32496583 2.855655 0.3790682 0.2196019
0.25574663 2.9080713 0.36533076 0.21449021
0.53015196 2.8288727 0.38298607 0.11622529
1.0586472 2.9159315 0.3884486 0.11422064
1.2866118 2.8706541 0.34259209 0.080304056
1.7417512 2.9140306 0.37426388 0.23137841
2.1951656 2.8764422 0.3752746 0.095461324
2.6195107 2.8924694 0.35450941 0.82415581
2.9095812 2.8746343 0.36994225 0.35851848
3.4118133 2.8784275 0.37346739 0.098192111
3.661211 2.9355645 0.33157432 0.054979451
4.1759634 2.8910053 0.3747009 0.093649693
4.6339555 2.8307328 0.3851884 0.10425878
4.8651466 2.826664 0.37489972 0.10156932
5.3949394 2.8206201 0.37978536 0.10502574
5.687808 2.8397603 0.38433567 0.33337295
6.0366468 2.8207307 0.39185512 0.11805862
6.5973997 2.8846955 0.37269062 0.99615622
6.9643617 2.8968287 0.35252273 0.85085297
7.4314804 2.9548225 0.34414542 0.10851425
7.8290529 2.9039984 0.33519185 0.76953375
8.1746283 2.8682661 0.36708283 0.41019475
8.5041628 3.0148869 0.3089011 1.0797467
8.8784752 3.0138354 0.30171591 1.0799891
9.2790909 3.0113316 0.29262227 1.1038241
9.6967258 2.9990025 0.28794903 1.0797658
10.084242 3.0392952 0.29153317 1.111439
10.557447 3.0255835 0.27618244 1.111701
11.041081 2.9873173 0.25152832 1.1119028
11.495779 2.9105611 0.21754608 1.1103295
11.639938 2.9691744 0.23617451 1.1110272
12.152818 2.9498253 0.21259502 1.1124206
12.680752 2.9215393 0.19351476 1.1122789
12.990382 2.8832393 0.18234694 1.1092691
13.444132 2.9330478 0.19638586 1.0740099
13.85323 2.851671 0.12207004 1.0358776
14.1958 3.0349135 0.22514132 1.0733097
14.594688 3.0653768 0.21528864 1.1134388
15.070307 3.0727396 0.25873822 0.81208104
15.377628 3.0384898 0.21485534 0.98762858
15.639524 2.8302395 0.1385712 1.1085171
16.129742 3.0710125 0.20905831 1.1106048
16.686024 2.9395945 0.12328259 1.0706278
17.001795 2.9671733 0.13810153 1.1136587
17.584919 3.0360947 0.13058989 1.0345035
17.843716 2.9634438 0.25246263 1.0366005
18.00684 2.9335325 0.23847336 0.064061895
-2.2081637 3.2496269 0.38477382 1.0403088
-1.8755291 3.2415371 0.38162744 0.73760968
-1.445896 3.2422161 0.37860429 0.88125688
-0.9772296 3.2644134 0.39214963 0.55784321
-0.59839869 3.4145632 0.38351965 0.075690441
-0.24497518 3.2316728 0.34438482 0.058568113
0.31214896 3.2658501 0.30466849 0.34696698
0.54569852 3.3771815 0.34371093 1.1100249
1.0166994 3.3272085 0.35782683 0.60114831
1.3695112 3.2881813 0.37468129 0.12679355
1.8250731 3.2891238 0.34365472 0.32944891
2.1292038 3.2968822 0.36413771 0.19067304
2.6290164 3.2332721 0.32030767 0.21994823
3.1263089 3.3733296 0.3669312 0.32863405
3.352469 3.2743523 0.39624953 0.055386998
3.6212885 3.2209401 0.36849418 0.055300772
4.3375092 3.3160596 0.38206667 0.072918989
4.4356413 3.3444557 0.39033753 0.055640221
4.8572063 3.2545059 0.3490133 0.055676542
5.2352185 3.2193234 0.35180297 0.093984887
5.7372694 3.2834105 0.38125607 0.07507436
6.3649235 3.2565513 0.39169773 0.33098364
6.4750652 3.2325139 0.37463611 0.21271925
6.9722242 3.2172322 0.37801898 0.12427155
7.4077525 3.2281756 0.38817561 0.094987385
7.8120732 3.2443094 0.38812855 0.3318021
8.1027832 3.2863779 0.36582875 1.0414474
8.684845 3.2298882 0.33692619 1.0407268
9.1089878 3.2630053 0.38619629 1.0778508
9.4633265 3.2565176 0.39255828 1.0952189
9.8740463 3.279489 0.37865329 1.0946684
10.339172 3.2636137 0.38071495 1.0786653
10.474562 3.2497768 0.38587824 1.079792
10.949944 3.254849 0.37355456 1.10405
11.408243 3.2574067 0.36623544 1.10382
11.924695 3.2506404 0.34824821 1.1039591
12.152364 3.3011861 0.38603818 1.1007652
12.578215 3.22893 0.33462685 1.1112742
13.112247 3.2490969 0.32343596 1.1047614
13.415112 3.2317255 0.3590399 1.1060575
13.710887 3.3309798 0.37683964 0.82984579
14.384916 3.2602706 0.28602821 1.0357141
14.502651 3.2751369 0.3237446 0.97185469
15.047382 3.3607469 0.38319874 0.60032219
15.407188 3.3201241 0.34555817 0.84773707
15.797242 3.4345548 0.37009716 0.94246078
16.15802 3.2225108 0.33879831 1.108067
16.56971 3.472671 0.35531354 1.0523062
16.889357 3.3281353 0.37734747 0.84510082
17.452591 3.4052522 0.31977543 1.0683899
17.817093 3.3552465 0.29314351 1.034325
18.025547 3.3358984 0.32473621 1.0402256
-1.7319231 3.6890101 0.37275428 1.11203
-1.219416 3.6953969 0.39047152 1.1132832
-1.0472811 3.6822567 0.39535871 1.1132832
13.322909 3.6913357 0.39248979 1.0360903
13.997319 3.6710773 0.38806158 1.0353384
14.746407 3.6344261 0.34644783 1.035589
14.851797 3.6448145 0.35665011 1.035965
15.576096 3.6463921 0.38659409 1.0380952
15.79686 3.622489 0.35817754 1.0357144
16.791922 3.6568987 0.35563818 1.0383459
17.001064 3.6555963 0.37589908 1.0751879
17.235909 3.6284294 0.32403761 1.0350877
17.919064 3.6408515 0.38266987 1.0350349
-1.8025644 -4.5060463 0.41050166 1.0672932
-1.4228325 -4.4482918 0.44350147 1.0586462
-2.0153131 -4.0412335 0.45820892 0.04587093
-1.8538058 -4.1504622 0.44571954 0.2990309
-1.4787421 -4.022769 0.5319761 0.17298484
-0.97471178 -4.0986638 0.45827222 1.0552673
-0.70801139 -4.1238861 0.46718681 0.43229949
-0.31646705 -4.0351791 0.44570833 0.31409764
0.092996456 -4.1481161 0.50893044 1.0576439
0.51051497 -4.1671162 0.43701679 0.56109023
1.0965102 -4.0571537 0.42410624 0.44724333
1.4230953 -4.0999832 0.40470591 0.10250664
1.8284938 -4.0616837 0.42606154 0.32286954
2.1478324 -4.0285368 0.42211547 0.32352746
2.697329 -4.0943356 0.41992107 0.57180405
3.64972 -4.0094895 0.40427864 0.048871994
4.2475743 -4.0806184 0.4261829 0.048621178
4.5656838 -4.0303802 0.40010744 0.049373627
10.77049 -4.0025711 0.43500805 1.0533838
12.428173 -4.008316 0.40933031 0.098245621
13.09992 -4.0180073 0.40933865 0.33652854
13.422046 -4.0550804 0.4264479 0.32637835
14.21436 -4.014873 0.43983167 0.098747253
15.364197 -4.0319138 0.42822695 0.59028256
15.700648 -4.0740952 0.40816498 0.59874725
16.223259 -4.0568314 0.4112691 0.47191411
16.559761 -4.0592637 0.42398459 0.5979383
16.946918 -4.0240383 0.42117882 1.0973467
17.288189 -4.0292435 0.46247971 0.47202396
17.672371 -4.0113516 0.43472773 0.12993896
18.134655 -4.1338196 0.41895831 0.21931852
-2.0246305 -3.87642 0.45136753 0.045897085
-1.7305167 -3.647887 0.42576581 0.082382143
-1.5493007 -3.6515365 0.42934453 1.0403886
-1.1605024 -3.6143646 0.41371727 1.0433652
-0.74837464 -3.6282773 0.42108688 1.0427679
-0.37039036 -3.6732697 0.40924594 1.0323033
0.16965403 -3.7503183 0.47184846 1.0490699
0.6490922 -3.6892433 0.52149189 0.31071505
0.99052918 -3.7043087 0.4826262 0.5948329
1.3079219 -3.6519394 0.42300153 1.0359647
1.6835623 -3.6596174 0.41750312 1.0424275
2.0458624 -3.7034183 0.41065681 1.0426277
2.4873657 -3.7039955 0.41330546 1.040379
2.935461 -3.7307844 0.46180007 0.5881328
3.4241779 -3.6682448 0.4367674 0.93918842
3.7657094 -3.7989767 0.43251595 0.63390124
4.1415772 -3.7986469 0.46336827 0.4716371
4.5890827 -3.713908 0.4647727 0.54876357
5.0276175 -3.8342409 0.42876852 0.17919226
5.411438 -3.7638369 0.48005944 0.11548834
5.7271147 -3.7184873 0.4992885 0.051464401
6.1278515 -3.6984363 0.44503367 0.55808127
6.5844355 -3.7180023 0.43821177 0.065302297
7.0270553 -3.7607825 0.42617005 0.5567112
7.4025264 -3.6700726 0.48138294 0.054602608
7.8512235 -3.7265973 0.42624936 0.056656301
8.180481 -3.6433401 0.47510096 0.058135387
8.5230293 -3.6831217 0.45275405 0.061454274
9.073761 -3.7270114 0.43907934 0.062795743
9.3366756 -3.6861646 0.44061813 0.17049921
9.7788544 -3.6440003 0.44619638 0.10421729
10.147507 -3.6424179 0.42269498 0.082524672
10.585684 -3.6325393 0.44707978 0.060438812
10.987026 -3.7165184 0.41447005 0.58260715
11.373421 -3.7462296 0.42194092 1.0749595
11.789997 -3.7081032 0.48941922 0.72722757
12.237076 -3.6883824 0.47306475 0.98903322
12.587365 -3.6463776 0.48964855 1.1036783
13.068905 -3.6463532 0.52967566 0.60255742
13.472105 -3.6763301 0.47198588 0.69359887
13.770915 -3.7533066 0.45475045 0.62151772
14.080584 -3.7037973 0.47971773 0.60296881
14.563646 -3.7789059 0.50802499 0.35222435
14.914619 -3.8169847 0.49865785 0.35238087
15.305492 -3.6955957 0.55832863 0.35224614
15.860777 -3.7304125 0.55215406 0.29033816
16.312786 -3.9003055 0.48013872 0.17261711
16.487885 -3.64996 0.57819706 0.22860548
17.101158 -3.712894 0.46717137 0.1080932
17.237288 -3.6979737 0.47262985 0.10426036
17.749973 -3.6871688 0.48710516 0.10440096
18.028456 -3.6967669 0.53280383 0.10426045
-2.0128312 -3.2235265 0.46689737 1.0369633
-1.7603225 -3.2768693 0.60243869 0.083204851
-1.5686603 -3.4670248 0.4940502 1.0446916
-0.95241946 -3.4335275 0.48564261 1.0370667
-0.61034298 -3.3530605 0.58589673 0.79300696
-0.19653755 -3.4181542 0.44345269 1.0385315
0.2622759 -3.2746077 0.58733362 0.99508762
0.57530004 -3.3652883 0.49594671 1.0369685
1.016071 -3.5604382 0.46201742 1.0420612
1.2360821 -3.4767125 0.48451623 1.0406916
1.6579249 -3.4859495 0.49033797 1.0417216
2.1820021 -3.2522962 0.60263401 1.0424697
2.6756949 -3.3434196 0.52856135 1.0346973
3.0453846 -3.5162141 0.4541859 1.0352683
3.3107555 -3.4997823 0.50037682 1.0422064
3.7689402 -3.3315392 0.5991028 1.0386678
4.2616758 -3.5323877 0.52788693 0.85949105
4.6048083 -3.360043 0.57750386 0.91960633
5.1468 -3.2418132 0.71021605 0.19682267
5.4691935 -3.292737 0.6218698 0.82611668
5.838069 -3.3495233 0.66925049 0.051083244
6.2276659 -3.4009242 0.57288903 0.5516603
6.5105791 -3.4452608 0.510867 0.58930033
7.0835218 -3.4910712 0.46592146 0.91793901
7.332634 -3.4109335 0.52625906 0.79392928
7.9157448 -3.4269896 0.48131749 0.98021924
8.1266003 -3.4702272 0.53680491 0.057030641
8.4479198 -3.4221697 0.50850451 0.54811639
8.988884 -3.3884661 0.47325024 0.91636449
9.268158 -3.3723483 0.49870977 0.58670741
9.7522764 -3.3846745 0.4833945 0.54655588
10.112814 -3.5045061 0.46616894 0.06558039
10.6041 -3.5302899 0.44511092 0.073773369
10.936525 -3.3854489 0.43867716 0.9277342
11.549397 -3.3310916 0.45389307 1.0218143
11.685406 -3.3012586 0.6317426 1.0575316
12.283262 -3.3267043 0.62747145 1.0254793
12.569694 -3.3512154 0.42077419 1.0547587
13.145866 -3.3771334 0.41711149 1.0423912
13.285903 -3.2415547 0.46577024 1.0746868
13.717546 -3.3643918 0.42199719 1.0478595
14.042875 -3.2259569 0.49108452 1.1080198
14.578568 -3.3111544 0.4365288 1.0565639
15.033449 -3.33341 0.55855972 0.93485725
15.439866 -3.325716 0.49023581 0.88004094
15.770858 -3.419287 0.50841624 1.076117
16.084042 -3.3281598 0.70969629 0.28529787
16.605207 -3.3386474 0.62640667 0.10785706
16.98912 -3.3240137 0.63860363 0.10414258
17.282171 -3.2980306 0.55644482 0.57270432
17.652428 -3.3574471 0.71370971 0.10402721
18.113224 -3.4510407 0.65398461 0.10414031
-2.0118239 -3.0593886 0.47514918 1.0359218
-1.7566056 -3.1778541 0.60776794 0.087607741
-1.5765932 -2.9803991 0.67978728 1.0439831
-0.91999316 -2.9803767 0.62001181 1.0285861
-0.52938354 -3.0586538 0.57799751 1.0391753
-0.25441834 -2.8602319 0.65584564 1.0347204
0.2041539 -3.1128402 0.58266938 1.0364506
0.45779079 -3.1340499 0.63285577 1.0416038
0.82704616 -3.1710169 0.62810183 1.0437027
1.3656347 -2.937253 0.70324278 1.0389892
1.7785103 -3.0536404 0.68220866 1.0418341
2.1078095 -3.007319 0.70912516 1.0404596
2.5741484 -3.0783076 0.68151021 1.0373534
2.9461703 -3.1288159 0.66024113 1.0416287
3.3654363 -3.0936804 0.60435975 1.0304623
3.7508907 -2.9350979 0.7125001 1.0597761
4.262166 -3.0367446 0.71922565 0.98134345
4.7034111 -2.9590821 0.6875453 1.069026
4.960618 -3.0966887 0.6938417 1.028213
5.3476419 -2.9984915 0.68290317 1.0401809
5.8812165 -3.012084 0.74977088 0.54909265
6.2481298 -3.0441346 0.70439136 0.05652412
6.7098427 -3.1266537 0.53114176 0.068054147
7.0586624 -3.0334201 0.65363443 0.54044795
7.4271517 -2.9088223 0.67662859 0.91768473
7.6987505 -3.0603309 0.60137177 0.94640082
8.3218479 -3.077457 0.68992984 0.058198318
8.5175629 -2.9438109 0.67774343 0.81351829
9.0491982 -2.9238985 0.70753205 0.5863117
9.4074326 -3.0184255 0.5514608 0.98930383
9.7015276 -3.0162306 0.69474494 0.18539907
10.158148 -3.0286965 0.60661548 0.94425869
10.594072 -2.9868293 0.61337143 1.0068212
10.940212 -2.9737301 0.63765389 1.0927866
11.328333 -2.8694925 0.66673493 1.1077952
11.771902 -3.0341525 0.57141948 1.0697544
12.163021 -3.0329564 0.50302601 1.0647602
12.533461 -2.9966443 0.52086723 1.0701969
12.941376 -2.9615593 0.51742381 1.0585421
13.311525 -2.9492826 0.52144158 1.071272
13.872959 -2.9782715 0.46799883 1.1084585
14.223989 -2.888206 0.50612146 1.1081803
14.673792 -2.9126406 0.58013141 1.0576732
14.922782 -3.0148573 0.49416006 1.0731694
15.466684 -2.9021375 0.56238449 1.0591435
15.923641 -3.0140858 0.55026215 1.0419179
16.085274 -2.9665346 0.56329274 1.0116013
16.493975 -2.9025576 0.65819913 0.98679006
16.919228 -2.9955256 0.56960118 0.99215174
17.440983 -2.8918257 0.47434974 1.0764918
17.814201 -3.0596204 0.44421238 1.0475507
18.219645 -2.8743124 0.45325387 0.93304873
18.442997 -2.8071151 0.48227736 1.1073937
-2.0250497 -2.7710891 0.6262629 1.0333205
-1.6084921 -2.7750666 0.78436959 1.0408337
-1.5367869 -2.6241114 0.62398511 0.98205686
-0.91177297 -2.6070113 0.76762927 0.91565633
-0.53672361 -2.6762033 0.74985373 1.0213308
-0.356112 -2.7609839 0.71316254 1.0356891
0.33036095 -2.7864766 0.77321458 0.93966818
0.60824305 -2.6919935 0.74090719 0.059062708
0.96055919 -2.7063365 0.78452671 0.55108857
1.3985548 -2.6389856 0.71618938 0.089500517
1.6667467 -2.6584244 0.72270012 0.061526362
2.0605378 -2.6710978 0.73690933 0.55720735
2.599036 -2.4832821 0.72135305 0.06826812
2.9857974 -2.6229234 0.69921827 0.075751886
3.3336096 -2.6726747 0.75268662 0.071346745
3.905149 -2.6071565 0.76250118 0.60029775
4.294775 -2.6744184 0.67056835 0.06876418
4.6861672 -2.68309 0.66884172 0.070527136
4.9870238 -2.5948255 0.72420573 0.068703026
5.4239135 -2.645654 0.70723295 0.068502009
5.6794481 -2.6472626 0.70076525 0.07103312
6.1309562 -2.5565193 0.76252919 0.069486246
6.7053018 -2.72298 0.69699091 0.066917181
7.0192223 -2.6380107 0.7469306 0.070406497
7.4475918 -2.7303991 0.71576643 0.068229221
7.8282485 -2.7365308 0.75792456 0.55225563
8.2676449 -2.7017808 0.76145089 0.13422613
8.5747681 -2.7785337 0.74508107 1.037343
8.8863811 -2.7504129 0.75619775 0.066823244
9.3092279 -2.7471442 0.74297178 0.0814538
9.9270267 -2.7142398 0.76315808 1.0390978
10.144508 -2.7579868 0.67348218 1.0563283
10.581404 -2.6828842 0.7648164 0.55050111
11.103675 -2.7781496 0.70195496 1.0690477
11.449696 -2.5957804 0.7308681 1.1147242
11.867414 -2.5226026 0.70673883 1.1177175
12.22547 -2.6441402 0.68979686 1.0724605
12.557301 -2.6632507 0.6572668 1.0691259
12.972188 -2.5804491 0.72666639 1.0470551
13.354207 -2.5387647 0.7340008 1.0212836
13.658699 -2.7606018 0.62334061 1.0060835
14.19315 -2.567652 0.64968061 1.0831021
14.669747 -2.4453456 0.69644684 1.1057804
14.986232 -2.6769714 0.65439165 1.0558614
15.277142 -2.5509076 0.73348176 1.0410659
15.665468 -2.7557449 0.64072764 1.040849
16.120178 -2.616111 0.5627259 1.1160669
16.61257 -2.6446908 0.58864248 1.05805
16.972122 -2.5740743 0.64964855 1.0550039
17.406002 -2.4989038 0.72529078 1.0433674
17.917706 -2.6976156 0.60587084 1.0580239
18.208084 -2.5371377 0.54945761 1.0402424
18.435841 -2.5851064 0.52982354 1.1130481
-2.0589533 -2.3484504 0.76098782 1.039726
-1.7139266 -2.179945 0.60832942 0.8058455
-1.4180121 -2.3850746 0.72579974 0.071052596
-1.0006497 -2.2545054 0.78344619 0.070927277
-0.60686505 -2.3294914 0.7806524 0.075814471
0.23423414 -2.3208916 0.73047549 0.067418516
0.43983397 -2.3182211 0.78836381 0.065162897
0.86393797 -2.3368042 0.72372168 0.067919768
1.4323306 -2.3690329 0.72499329 0.068421021
2.2058964 -2.3157787 0.77155584 0.069235548
2.7114308 -2.2906296 0.77907538 0.069736809
3.2452202 -2.3696625 0.77973902 0.067293227
12.154394 -2.3743939 0.77412492 1.1135967
12.456049 -2.3896425 0.74063337 1.1180449
13.429354 -2.3883991 0.78283221 1.1073937
13.6731 -2.3303893 0.76155555 1.1093984
14.782671 -2.3987095 0.66909558 1.1107769
15.104462 -2.3032465 0.73740757 1.1092575
15.39089 -2.2599285 0.74878418 1.1140977
15.757876 -2.3587391 0.70686024 1.1185465
16.253857 -2.3348339 0.72949696 1.0737154
16.570522 -2.2616055 0.72608238 1.1083961
17.06004 -2.1956415 0.7361213 1.1017542
17.416285 -2.3310015 0.64247549 1.1109962
17.787624 -2.3124938 0.75595176 1.0555519
18.177992 -2.1287906 0.70779574 1.0397378
-2.0894971 -1.9269292 0.72978193 0.054616168
-1.7937012 -1.8542166 0.55408335 0.56525677
17.888586 -1.8797798 0.53993845 0.54760647
18.202335 -1.9311036 0.75199288 1.0791262
-2.0879443 -1.5556908 0.74538398 0.061152935
-1.891614 -1.4052079 0.62702906 0.56827998
17.850525 -1.4756799 0.61394393 0.64435101
18.171932 -1.380013 0.52086705 1.0725564
-1.8902488 -0.89910597 0.69087195 0.56754398
17.882084 -1.0472829 0.52850324 0.17548573
18.11879 -1.0040846 0.57458162 1.0507936
-1.8169684 -0.50085396 0.53497529 0.85012531
17.750275 -0.67356849 0.58030224 0.64512855
18.083708 -0.67524731 0.72073168 1.0752506
-1.835797 -0.23008704 0.57846785 1.1028538
17.816166 -0.31080472 0.51710105 0.57218027
-1.8748354 0.26553813 0.70396841 1.1052557
17.849144 0.201998 0.54562825 0.63571429
18.013969 0.25040942 0.43188149 1.0751252
-1.8988324 0.57974893 0.66676944 0.60389495
17.959204 0.59517431 0.55127227 1.0104167
-1.9361088 1.1609316 0.74027491 0.70567095
17.955639 0.89330399 0.72118169 1.0097611
-2.0078983 1.4646719 0.71207118 0.20223007
-1.9535156 1.4439852 0.55000895 1.0088993
17.598867 1.3171911 0.79766005 1.0912275
17.948498 1.4725416 0.40633336 0.038620323
-2.0136588 1.8298687 0.5719893 0.35690704
-1.9709444 1.9373295 0.50134671 0.20390256
-1.4159218 1.9355304 0.43158117 1.0686712
-0.891285 1.973699 0.44048533 1.068922
0.31439695 1.9940596 0.4302699 1.0694237
15.428866 1.9863517 0.40397525 0.037593842
16.874928 1.8959378 0.40207815 0.037844658
17.564934 1.9288677 0.42128542 0.038095474
17.923111 1.8735662 0.45535308 0.038339175
-2.0157511 2.3547702 0.7254988 0.91340542
-1.9727169 2.1096458 0.57927579 0.12767532
-1.5981427 2.2928176 0.50157565 1.0644112
-0.85003614 2.2929993 0.50766605 1.0664945
-0.59006917 2.34409 0.44907111 1.088346
-0.061771426 2.1881366 0.52766627 1.0750628
0.088635512 2.2675261 0.54476464 1.0708334
0.54130715 2.2458954 0.52779835 1.0704417
1.0119623 2.2912676 0.45812958 1.0663888
1.3433827 2.3585896 0.56381893 1.0703709
1.8913474 2.1525967 0.46510619 1.0710526
2.1328964 2.217834 0.44415048 1.0687339
2.5887256 2.2353985 0.48188251 1.0719299
2.8277564 2.2219012 0.40755346 1.0837088
3.3180375 2.3595595 0.44609722 1.0695071
3.9182816 2.3671169 0.43415985 1.0671682
4.0371208 2.2647166 0.41769415 1.0828319
4.4011765 2.396179 0.44590861 1.0824556
4.8416409 2.373704 0.42066577 1.0680451
5.4087849 2.3612509 0.40753978 1.0695174
5.6105804 2.3854568 0.41491002 1.068922
8.0995216 2.3313544 0.40633616 0.1147871
8.655983 2.3591969 0.40378475 0.11253166
8.9764595 2.297626 0.40513292 0.11428547
10.122581 2.3496604 0.44017673 0.11378479
10.734859 2.3328042 0.45491517 0.11309528
11.482305 2.3230224 0.43244749 0.1115284
11.863292 2.3716164 0.40358508 0.036622882
12.013233 2.3913615 0.44308642 0.03659153
12.505249 2.1958508 0.41980204 0.10329328
12.828309 2.3847096 0.45571613 0.036842346
13.489489 2.1580386 0.41524267 0.10310125
13.713055 2.3430483 0.44613263 0.037155628
15.440413 2.0883229 0.4173989 0.037593842
15.875254 2.138279 0.40974253 0.037593842
16.060196 2.2219863 0.43722507 0.075266302
16.434498 2.3047493 0.45403439 0.073809624
16.94066 2.0619493 0.44190064 0.037844658
17.526478 2.1636071 0.51011848 0.43067086
17.928043 2.0470269 0.51159465 0.095001966
18.011116 2.2427592 0.43112195 0.050860189
-2.0343909 2.6565337 0.48867589 1.1051329
-1.9483314 2.7498007 0.5080291 0.19299975
-1.2571754 2.7377024 0.43399838 1.0565863
-1.0396338 2.6221609 0.4327836 0.22832982
-0.59426177 2.7619605 0.47055054 0.35074747
-0.1675929 2.6041646 0.4827984 1.0472497
0.078748189 2.6984663 0.49635461 0.1139786
0.71927798 2.6948786 0.49974948 0.13028008
0.93415266 2.5947065 0.43676209 0.14601441
1.4910545 2.5960679 0.45585155 0.17756271
1.6857471 2.5933046 0.4553448 0.1263735
2.2222672 2.6897707 0.45375872 0.2341374
2.5252893 2.6529856 0.49779829 0.1503762
2.8706558 2.6013107 0.43633631 1.0619175
3.3966784 2.6010273 0.42867103 0.17640725
3.8302493 2.6147153 0.44723481 0.17686941
4.2141299 2.6983161 0.47635865 0.12945861
4.5849533 2.5783648 0.44138491 0.11683331
4.9857836 2.6966648 0.46529651 0.11601248
5.431684 2.689575 0.47836053 0.1166821
5.8443961 2.6911788 0.50892317 0.11515586
6.2098885 2.6489155 0.49810457 0.11561056
6.6475191 2.5623631 0.45290592 0.11405113
6.9478641 2.6100383 0.5017426 0.11492924
7.3767118 2.6336308 0.53058839 0.11436188
7.7556839 2.6328301 0.5284183 0.11364448
8.1875648 2.5392261 0.49096939 0.11420719
8.5008621 2.6493936 0.54330903 0.11393836
8.9593344 2.5935624 0.51904368 0.1137474
9.3605175 2.5177989 0.50271541 0.11347197
9.817503 2.7147355 0.59104133 0.11275175
10.149258 2.4806354 0.44674364 0.11136926
10.574741 2.6849141 0.59089804 0.11270107
11.090364 2.5674784 0.44696337 0.11086333
11.379877 2.6319523 0.61009634 0.11311889
11.901511 2.623095 0.45869187 0.10852525
12.239395 2.7177663 0.66473389 0.11281278
12.636685 2.7308192 0.43411201 0.28496477
13.068829 2.5983422 0.49075761 0.11644526
13.364136 2.5440936 0.58634377 0.12716395
13.839934 2.4861543 0.41630131 0.11207196
14.039158 2.6227241 0.48589337 0.10874926
14.483263 2.7030602 0.43870676 1.0907925
15.001957 2.601886 0.41995347 0.60034293
15.285646 2.4876685 0.41381449 0.10782906
15.764067 2.6663008 0.59947014 0.12536751
16.211639 2.6759105 0.50723124 0.23092063
16.713242 2.7888565 0.53131229 1.0921994
16.988827 2.7384548 0.5292266 0.6000936
17.501001 2.6539335 0.57179517 0.6031003
17.838974 2.6119437 0.73506045 0.98807991
18.015949 2.7865245 0.43819416 1.0591161
-2.0630684 3.0641332 0.5396753 1.1011691
-1.7989396 3.0523174 0.63708723 0.11022643
-1.2181239 3.0289426 0.57569003 0.11376037
-0.94402242 3.1168535 0.68133163 0.1108423
-0.70340002 2.9502563 0.58357024 0.11129232
-0.093921982 2.9203224 0.59315991 0.11327741
0.34565812 3.1402245 0.69461209 0.11464806
0.45370272 3.0585079 0.67350698 0.11507495
1.1040988 3.0792475 0.66313136 0.1170244
1.3069525 2.9058161 0.61145389 0.11790726
1.7077386 2.941633 0.60318798 0.11793388
2.1695089 3.0309982 0.67938566 0.12031266
2.54702 3.0716782 0.67601979 0.12006476
2.979645 3.0164487 0.6376788 0.11876433
3.305865 3.0490541 0.64913416 0.11823082
3.7521653 2.9892316 0.5738833 0.11271821
4.133728 3.0265841 0.63664079 0.11668194
4.5690103 3.0081911 0.59367567 0.11279386
4.9241447 3.0673313 0.64644837 0.11397185
5.4337196 3.0544424 0.66378027 0.11512533
5.7583652 3.0518017 0.66974646 0.11521732
6.1259346 3.0314467 0.67598313 0.11544736
6.5851412 3.0902181 0.7063058 0.11497697
6.9740925 2.9018526 0.61093116 0.11316694
7.3405666 3.0500674 0.71009707 0.11444392
7.9051442 2.9670334 0.67985088 0.11315418
8.2174034 2.970933 0.64400196 0.13509579
8.6838865 2.9506726 0.68909931 0.11337896
8.9612684 2.9655209 0.68438745 0.11361203
9.3409672 3.0504961 0.73322976 0.11352232
9.8638439 2.9472532 0.67634124 0.11164187
10.295344 3.0512309 0.74905443 0.11242504
10.467827 2.9009018 0.6582619 0.11095697
11.051901 2.9257095 0.65399086 0.11012056
11.28037 2.9845457 0.69860846 0.11135581
11.872026 2.9343534 0.62055779 0.1088386
12.140856 2.9630599 0.70459509 0.11040158
12.601181 2.8601987 0.5277229 0.10689211
12.951165 2.9444349 0.61781442 0.10814551
13.233002 2.8942738 0.71806836 0.11144947
13.793958 2.9549465 0.51915908 0.16790289
14.03465 3.0551348 0.46535432 1.0987468
14.443674 3.0707312 0.4712534 1.0987468
14.854618 3.0007553 0.52927876 0.16762188
15.301984 3.0554864 0.687805 0.10986918
15.870987 2.9766765 0.68069339 0.10842575
16.142067 2.9441056 0.68893254 0.10925658
16.690901 2.9415326 0.62850833 0.13838831
16.847393 2.9096146 0.62392294 0.10753137
17.269638 3.1705122 0.67594469 0.22906458
17.792105 3.1132526 0.69038403 0.35708088
18.004841 2.9087286 0.48310095 1.0592089
-2.4067113 3.5704997 0.70259184 0.046867371
-2.0866566 3.4160848 0.67585379 1.1086382
-1.734297 3.2278011 0.71425831 0.10886008
-1.3774505 3.3661366 0.69930685 0.11346238
-0.91556239 3.3018446 0.65888166 0.35311484
-0.62601292 3.3888783 0.63278842 0.59397769
-0.27258557 3.2321351 0.6964258 0.23498735
0.34516004 3.2464995 0.72694403 0.17643304
0.4871977 3.2941313 0.68765545 0.35981107
1.0129292 3.2993517 0.78416491 0.11853583
1.4340837 3.3202844 0.7480489 0.17532396
1.7883992 3.2952266 0.7460624 0.21058837
2.2069592 3.3132715 0.7584883 0.11778655
2.4556885 3.2984271 0.77514148 0.11876635
3.0873346 3.4711366 0.72682393 0.10829203
3.4695325 3.3730502 0.70938665 0.1093256
3.7722135 3.3453708 0.76834869 0.11601462
4.2414551 3.2890496 0.72951353 0.11334594
4.5720425 3.2871699 0.73664588 0.11340888
5.0610638 3.3329573 0.75283056 0.11258974
5.337326 3.2694359 0.7594862 0.11469451
5.8200035 3.3161626 0.76501393 0.11235377
6.237299 3.3134046 0.73272324 0.1091877
6.5189552 3.3304658 0.77552468 0.11084694
7.0093851 3.2429914 0.76379937 0.11162104
7.4771585 3.2566359 0.73345226 0.17278329
7.7883072 3.2524452 0.71037412 0.25244415
8.2103806 3.3931646 0.55782509 0.86109543
8.60674 3.3408272 0.6435439 0.59814775
8.918129 3.4683247 0.52644825 1.0023785
9.277071 3.5279336 0.52037609 1.0800712
9.7576351 3.4426813 0.50364041 0.98513472
10.168736 3.4640527 0.53704005 0.86030424
10.544058 3.4590602 0.48529407 1.1099547
11.034892 3.4324543 0.50631601 0.92440623
11.451454 3.2918687 0.5411309 0.60833335
11.701063 3.4209142 0.60316306 0.6735431
12.215668 3.4034929 0.43421096 1.1104991
12.516335 3.3857007 0.61661601 0.60680509
12.936707 3.3859148 0.56202805 0.64180619
13.503859 3.3815694 0.56169903 0.61773086
13.628983 3.3360982 0.74414915 0.11067678
14.285945 3.4063993 0.40813375 1.1072853
14.440858 3.3340549 0.42620492 1.1077741
14.953491 3.4757929 0.51168787 0.56774646
15.237297 3.3139434 0.54227442 0.098534092
15.909115 3.5052197 0.49878722 1.0406322
16.273949 3.225122 0.75377876 0.10999595
16.67606 3.3439918 0.64871901 0.33302969
16.918938 3.3565519 0.63326597 0.53889024
17.294464 3.2318363 0.74773502 0.12864561
17.814672 3.5176778 0.42240542 1.0365124
18.004005 3.2889962 0.46527994 0.17250608
-2.4056115 3.8557553 0.78918833 0.54686737
-2.0773323 3.7803299 0.74723834 1.0751384
-1.7356343 3.6798544 0.77055454 0.25436127
-1.3447183 3.8262775 0.75868523 0.78711253
-1.0940739 3.6958103 0.76513159 0.43447775
-0.65757954 3.8737538 0.78328323 0.86563897
-0.12099207 3.8481503 0.77172434 0.3246232
0.13290663 3.6808407 0.78539336 0.12942426
0.60843396 3.7285562 0.78040427 0.13301316
1.1087165 3.6751602 0.76179123 0.3336212
1.35937 3.6856165 0.75494528 0.1220443
1.8732748 3.6927481 0.78988433 0.10751063
2.2703304 3.6885095 0.76295555 0.16470906
2.5288465 3.6574326 0.78757286 0.10545099
2.9077935 3.6494813 0.78646797 0.10612041
3.3539693 3.6397595 0.7822814 0.10498225
3.7712436 3.6236243 0.78820205 0.10628254
4.2807012 3.6411481 0.780514 0.16660944
4.4983234 3.6399016 0.78366268 0.10699767
4.9989376 3.6951823 0.76829112 0.58959031
5.3509359 3.6776142 0.77093399 0.22153436
5.9032369 3.6341243 0.75298047 0.10963523
6.1060352 3.624203 0.72775805 0.10150398
6.6081686 3.8236761 0.77441561 0.60366821
7.0617166 3.9439101 0.77674758 0.98220575
7.3858147 3.8152735 0.68475938 1.0955424
7.8983188 3.7803953 0.68520093 1.0004621
8.2089233 3.8802619 0.68716919 1.0902708
8.6058865 3.8572307 0.68071711 1.1032223
9.0768375 3.8245616 0.65894628 1.1093307
9.4959717 3.8511243 0.66354454 1.1105418
9.716795 3.6534443 0.57600272 1.1102586
10.063194 3.84408 0.63486218 1.1118505
10.567467 3.8780031 0.640306 1.1121218
11.145082 3.8090897 0.61568677 1.1113633
11.366282 3.773736 0.63200629 1.1083961
11.770157 3.7080102 0.57095516 1.1099088
12.234806 3.738441 0.56610966 1.1113526
12.705467 3.8604851 0.65276206 1.1053268
13.012344 3.7499013 0.56746 1.1029975
13.503103 3.7378144 0.60007763 1.0771458
13.690334 3.6814461 0.60268682 0.67096847
14.295 3.7260733 0.52995479 1.0883158
14.605686 3.7851491 0.65588933 0.56772852
14.975218 3.6942601 0.46270695 1.0352523
15.319191 3.8270669 0.65327859 0.85570908
15.766066 3.6429272 0.49356896 0.82086504
16.22386 3.8363628 0.61625421 0.85827428
16.481733 3.8850293 0.65614164 0.69240969
16.880619 3.860847 0.70544398 0.60225737
17.373215 3.9028575 0.60345143 0.88019562
17.786011 3.802458 0.51091909 1.0341929
18.006382 3.8344984 0.7397716 0.30448166
-2.2242017 4.033844 0.79061896 0.73825204
-1.7275972 4.0060534 0.79422152 1.0471576
-1.4483018 4.0288601 0.79051948 1.0454266
-1.1787713 4.1165142 0.78393984 0.053132899
-0.69373119 4.0896282 0.77078253 0.55095375
-0.12952426 4.0347986 0.78853881 0.87563312
0.29193592 4.0058699 0.76292896 0.17459163
0.6346941 4.0098696 0.73631287 0.052083582
0.9792307 4.0075545 0.73845255 0.052944858
1.3057446 4.0634217 0.76616323 0.053138293
1.6455566 4.0806317 0.77578831 0.053381771
2.1457396 4.0539913 0.759197 0.18027896
2.51968 4.0965586 0.78200209 0.052609071
3.038476 4.0764408 0.7878468 0.05242797
3.3128037 4.0258098 0.78522563 0.07988818
3.7118697 4.0547419 0.79256058 0.053277232
4.1518364 4.040431 0.78781521 0.053250335
4.6643872 4.0564032 0.78843701 0.054114774
4.9625378 4.0863304 0.78288007 0.054449514
5.2847242 4.0247469 0.77004457 0.22378175
5.7358789 4.0748243 0.75122422 0.094611481
6.3321581 4.0330305 0.74320883 0.094861977
6.5990252 4.084856 0.76075613 0.09573935
7.0979004 4.0461273 0.7508111 0.096077017
7.5067086 4.0366955 0.74326801 0.096966363
7.8480597 4.0345516 0.7474879 0.14012271
8.2994957 4.0686817 0.77607411 0.66124964
8.5922127 4.0493612 0.74972653 0.67025363
8.9524384 4.0495443 0.75870883 1.1098719
9.4294987 4.0688648 0.7661792 1.0829952
9.9102154 4.0801635 0.76664573 1.1074326
10.348721 4.0218902 0.77204204 1.0815862
10.480377 4.1241136 0.7753818 1.0059336
10.945653 4.1186213 0.74548477 1.1033921
11.51894 4.1526394 0.74603873 1.1108553
11.80641 4.0241051 0.73444796 0.99731904
12.129282 4.1868758 0.74974835 1.1117821
12.703489 4.2202592 0.75184083 1.0818942
12.919168 4.0927296 0.75493419 1.1050361
13.415146 4.2592936 0.75454015 1.1049178
13.849874 4.1255584 0.74755949 1.1078302
14.147802 4.1506987 0.71770579 1.0477339
14.587872 4.0843716 0.78901279 0.072768539
14.995798 4.179945 0.71121681 1.0468366
15.57637 4.1749411 0.65635192 1.0346045
15.649687 4.1710463 0.66982973 1.0538812
16.104828 4.2518883 0.76710176 1.0146512
16.544048 4.1040792 0.66251707 0.94376796
17.097157 4.2700634 0.78503585 1.0432329
17.286119 4.1677837 0.67370415 1.0093334
17.735874 4.2624454 0.72290301 1.0443223
18.035458 4.1597729 0.76902938 1.0457776
-1.9415569 4.4329262 0.78531325 0.34729418
-1.3297801 4.4884911 0.74033165 1.1107143
-0.94005167 4.4540172 0.74924123 0.58389717
-0.51698911 4.4202852 0.77985549 0.22086518
-0.15495574 4.4646363 0.74842012 1.1115289
0.19583817 4.4666667 0.78456581 1.110025
0.73957288 4.5064859 0.7515527 1.1122806
1.1013255 4.4371424 0.7806251 0.58402252
1.9860576 4.4238939 0.79377663 1.1090225
2.6990364 4.4535832 0.79188645 1.1111529
7.3532 4.4104166 0.79413605 1.0401002
8.87642 4.4028463 0.75394779 1.0393484
10.199114 4.4308071 0.78235871 1.0385025
10.422055 4.4271169 0.77302402 1.0385965
10.922755 4.417871 0.75777328 1.0380952
11.297379 4.4683752 0.79342091 1.0378447
11.745913 4.4400072 0.78576672 1.0406495
12.864927 4.4496679 0.770836 1.0401002
13.525724 4.5616713 0.78432542 1.0368421
13.812274 4.5104923 0.7636109 1.0378447
14.193289 4.4340992 0.77186751 1.0761278
14.411785 4.4586306 0.68339181 1.035589
14.927135 4.4564881 0.78876865 1.0778503
15.42178 4.432651 0.77762157 1.0433583
15.819995 4.5071096 0.744358 1.0750391
16.230129 4.4317627 0.71144164 1.0383407
16.5998 4.5273714 0.75479263 1.0754073
17.174088 4.5553665 0.74719679 1.0347118
17.384274 4.4732676 0.73956591 1.0389726
17.77026 4.4514198 0.76302683 1.0547404
18.010811 4.5110841 0.7744298 1.0382832
-2.0794697 -3.2971869 0.89819908 1.0590851
-1.8849901 -3.2096062 0.82408094 0.047603734
-1.5544834 -3.2795219 0.80698341 0.078258157
-0.89421654 -3.2517896 0.83015144 1.0557644
-0.52246106 -3.2979269 0.87266493 1.0608552
-0.063952349 -3.34058 0.81142265 0.55225563
0.18857025 -3.2879229 0.85671902 1.0573931
0.64615124 -3.2180092 0.82386053 0.047118187
0.83692616 -3.219341 0.81776202 0.047118187
16.623529 -3.2139685 0.80038691 1.0964909
17.010811 -3.2270617 0.83279002 1.0885415
17.433037 -3.2249455 0.84089833 1.0963303
17.663773 -3.3170662 0.81095558 0.10375977
-2.0310879 -2.9297533 0.82570553 0.046641923
-1.675211 -2.854979 0.84125936 0.98175132
-1.5663321 -2.9860806 0.91339576 0.04686746
-1.0888102 -2.810935 0.97791207 0.047118075
-0.74464607 -2.8746095 0.94324011 0.047122922
-0.1325376 -2.9949446 0.90531605 0.094479725
0.13513994 -2.8074028 0.97769457 0.047368169
0.43876731 -2.8567982 0.95455647 0.047368035
0.86171079 -2.9323378 0.92184651 0.047384318
1.3843254 -2.8114085 0.97189593 0.047680553
1.829453 -2.9892359 0.82107586 1.0779781
2.2754653 -2.8713176 0.84151888 0.90457183
2.602735 -2.911885 0.82485539 0.51870322
2.9730666 -2.8597927 0.82721227 0.79732347
3.4567003 -2.9037983 0.84873599 0.1012136
3.8225565 -2.8637574 0.86140466 0.43707711
4.1186829 -2.8591051 0.8131007 0.79627335
4.559042 -2.8933923 0.85500705 0.064378917
5.0593529 -2.9676964 0.82661533 0.060289495
5.4763412 -2.8518882 0.83226925 0.65795833
5.7601547 -2.9459987 0.81637281 0.051781386
6.542213 -2.9330101 0.82013059 0.051879883
7.1008701 -2.8341346 0.81477046 0.075182751
7.3127575 -2.8449416 0.80977052 0.088866942
7.8321524 -2.8727608 0.82637441 0.082858093
8.1146479 -2.8288157 0.83462846 0.072619438
8.5196009 -2.8683813 0.84758151 0.11428571
8.9397011 -2.8883824 0.83499819 0.30062628
9.4242554 -2.8257341 0.83675396 0.61149782
9.7291794 -2.9097276 0.8222332 0.13486305
10.180353 -2.8647599 0.83646584 0.052381039
10.551721 -2.8233442 0.83521658 0.053446174
11.060523 -2.8320618 0.85590601 0.075187922
11.312089 -2.8906095 0.83424377 0.60007048
11.69521 -2.943656 0.81180465 0.60021663
12.248013 -2.9130096 0.83910847 0.60060781
12.624935 -2.949868 0.81602997 0.85133868
13.014673 -2.8841951 0.86633635 0.60056692
13.433576 -2.8716459 0.85874033 0.60730666
13.773309 -2.8622308 0.83658928 0.68557334
14.180782 -2.9446571 0.87612933 0.11777203
14.674568 -3.0393662 0.84225804 0.10024288
14.918015 -2.9027424 0.88827658 0.26760602
15.249218 -3.0631881 0.82412422 0.10034508
15.705686 -3.0184016 0.85890687 0.10199223
16.09618 -2.927002 0.89239347 0.10050105
16.647272 -2.9943271 0.80818272 0.10374251
16.855543 -3.0027306 0.82334554 0.10376369
17.284176 -3.0123198 0.86243868 0.10376769
17.634117 -2.9881022 0.87855339 0.10375977
18.29594 -2.9126213 0.80402994 0.10325859
18.40699 -2.9227536 0.81088877 0.10325813
-2.0522668 -2.4941516 0.87266827 0.91691917
-1.6597276 -2.5972095 0.93753147 1.0436271
-1.332819 -2.4369617 0.85120261 1.0221239
-0.84032857 -2.4723954 0.83325207 1.0365916
-0.72161013 -2.4649737 0.86239624 1.0374675
-0.20074296 -2.5864251 0.85658759 1.0384812
0.22791952 -2.4988117 0.94966048 0.79781699
0.59693849 -2.4779263 0.95947903 0.79373407
0.98916841 -2.5243368 0.93091691 0.98180604
1.4847996 -2.7476501 0.82503706 1.0434403
1.7472383 -2.5299673 0.90944141 1.0432711
2.0487094 -2.7591298 0.81700504 1.044009
2.5464349 -2.5290184 0.92741919 1.0435297
2.922513 -2.7307897 0.83751464 1.0431736
3.2534962 -2.5596929 0.86296165 1.0361185
3.8347762 -2.6208937 0.89623308 1.037321
4.1025963 -2.7106137 0.85808539 1.0440216
4.5816526 -2.5710564 0.92342246 1.0406723
4.912375 -2.5983286 0.91308975 0.96195221
5.3204045 -2.5610113 0.98744595 0.082458511
5.7009516 -2.5464599 0.94193137 0.7967487
6.1638193 -2.5241027 0.95404267 0.86113858
6.5368805 -2.5621858 0.94560385 0.55034417
6.8863735 -2.553431 0.90983707 0.58327556
7.391593 -2.6199932 0.86286616 0.59027696
7.8079476 -2.5787921 0.93616277 0.057171069
8.1270676 -2.647301 0.85173732 0.15656757
8.6956034 -2.7186341 0.84612417 0.059315499
9.0539455 -2.5573726 0.91686028 0.062736057
9.3170395 -2.5254459 0.90996397 0.19896254
9.7322693 -2.5225916 0.89197409 0.51503086
10.183582 -2.4851537 0.88176978 0.59983033
10.477514 -2.6272788 0.88348842 0.057710554
10.986931 -2.5337732 0.94532335 0.85272038
11.451816 -2.6201389 0.89592785 0.8532604
11.764173 -2.4281077 0.84821355 0.99710536
12.266741 -2.4432015 0.84605157 1.0761036
12.476541 -2.4297097 0.85967207 1.1074454
12.888365 -2.4224257 0.87357283 1.1076204
13.394162 -2.4658549 0.89390677 1.1061715
13.861423 -2.6325259 0.90080446 0.93615514
14.20761 -2.6162794 0.86186588 1.0891492
14.55564 -2.5825183 0.91000044 0.85176873
14.898986 -2.4431357 1.0107576 0.10340837
15.37772 -2.7143993 0.89110744 0.10350848
15.781857 -2.6894617 0.91063273 0.10363435
16.039234 -2.6965029 0.92965764 0.1035089
16.699404 -2.6912961 0.98400092 0.13579878
16.901264 -2.4104924 0.8026619 1.1052608
17.363235 -2.6355457 0.92318213 0.10754894
17.633678 -2.5753284 0.95600307 0.1030379
18.32653 -2.6508491 0.81982893 0.10477455
-2.0327783 -2.1755662 0.92153877 1.0401721
-1.7187227 -2.3276391 1.0445464 1.0437596
-1.2432938 -2.2137733 0.91240299 1.0357983
-1.1026473 -2.3456554 0.83936977 1.0362847
-0.74828982 -2.3352518 0.93269265 1.0392272
-0.090561837 -2.1050406 1.0361809 0.97633731
0.23960193 -2.2415662 0.95400673 1.0373203
0.64484572 -2.1673069 1.0222524 1.0390975
1.0196564 -2.3307464 0.98111868 1.0385735
1.2330081 -2.3268001 1.002785 1.0446812
1.8393586 -2.1648331 1.0774243 1.0326071
2.2870202 -2.2907977 1.0297817 1.0436689
2.5041304 -2.2675915 1.0390875 1.0445788
2.9364223 -2.1380777 1.0380253 1.0371923
3.4796154 -2.2835803 0.97099864 1.0334568
3.8657203 -2.2213807 1.0473417 1.0403289
4.1112709 -2.3423176 0.98639691 1.006254
4.5627031 -2.2706437 1.0141665 0.83352232
4.9998174 -2.2499218 1.0630145 1.0298715
5.2811027 -2.261657 1.0740817 0.79696542
5.7963223 -2.2465372 1.0133784 0.95972049
6.187604 -2.3415217 1.0434029 0.55121297
6.6798339 -2.1706152 1.1146718 0.54938591
6.8993101 -2.2145486 1.1006012 0.054028802
7.374712 -2.2153144 1.0989482 0.054628104
7.7674656 -2.1468005 1.1186013 0.05579634
8.131484 -2.1973529 1.0643531 0.078503385
8.6273937 -2.2455039 0.96034992 0.59389198
8.8945389 -2.2434297 1.0090992 0.26672736
9.4002438 -2.2599521 0.96939594 0.59297371
9.8517485 -2.1205881 0.97770959 1.095757
10.15019 -2.0404949 0.98441952 1.0480342
10.706955 -2.0850372 1.0146435 1.0932096
10.931644 -2.2101374 0.95186985 1.0670173
11.433544 -2.0818248 1.0563606 1.0768626
11.859857 -2.2277761 0.86122847 1.0584203
12.180374 -2.1084218 0.91129506 1.0724168
12.546513 -2.1459212 0.8888278 1.0740118
13.03505 -2.1433163 0.91391206 1.0704875
13.31958 -2.0555696 0.98258245 1.0698847
13.730328 -2.2572381 0.88307941 1.0702693
14.124743 -2.1494229 0.89323628 1.1078005
14.461937 -2.1002014 0.9484061 0.85678023
15.042206 -2.1309795 0.90370727 0.86526042
15.474451 -2.1767228 0.8559314 0.94576514
15.917655 -2.1063631 0.82295334 1.1003047
16.050467 -2.1123447 0.98613584 0.72901529
16.700085 -2.2510648 0.90605795 0.73563123
16.926935 -2.2101512 0.8627156 1.0401669
17.383604 -2.0775847 0.91668242 0.93116021
17.882879 -2.154217 0.98186719 0.73880786
18.134605 -2.0173497 0.87672865 1.0100553
-2.0118947 -1.9654002 1.0956876 1.0433898
-1.7885704 -1.904562 1.1425805 1.0420041
-1.5247458 -1.9578743 1.0626538 1.0380803
-0.97945565 -1.9073648 1.098151 1.0399835
-0.5932104 -1.8790522 1.1634927 1.0438585
-0.18900113 -1.8239378 1.1310141 1.0317062
0.26916188 -1.9684522 1.1890833 0.67332804
0.64278728 -1.851386 1.1733215 0.055206746
0.90566266 -1.8816128 1.1391258 1.0407367
1.4095948 -1.9323416 1.1817124 1.0450075
1.8830564 -1.8776467 1.1611204 1.0263653
2.2930861 -1.9656682 1.1680071 1.0301931
2.5465531 -1.923938 1.1795384 0.92216867
2.9603281 -1.94807 1.1765516 1.0146143
3.3226819 -1.9448571 1.1531856 0.55184257
3.7740526 -1.9005637 1.1868937 0.91882646
4.1508684 -1.7692945 1.0634887 0.072270937
4.6716571 -1.7867142 1.0872949 0.066838942
5.0876245 -1.7974166 1.1660607 0.061428748
5.4283876 -1.9077075 1.1781825 0.057341117
5.7991433 -1.9156964 1.1630607 0.55526
6.1920543 -1.676432 1.1622605 0.067249618
6.5129051 -1.7513208 1.1354302 0.06755358
7.0078444 -1.8243952 1.1102433 0.07326901
7.3695025 -1.8751545 1.1623507 0.068961315
7.6952543 -1.8628021 1.1608257 0.086896688
8.5905323 -1.9105012 1.1153797 0.6706925
9.0542126 -1.906486 1.1041744 0.79426694
9.5170813 -1.847716 1.1196307 0.55208343
9.7009583 -1.8239099 1.174629 0.5907892
10.334501 -1.9043971 1.076232 1.107331
10.63562 -1.882426 1.0738313 1.064324
10.947422 -1.6648679 1.1601584 1.0666039
11.490639 -1.822137 1.0828459 1.1093283
11.880587 -1.7108517 1.1164254 1.1089811
12.166145 -1.7843823 1.057631 1.0526857
12.580865 -1.6873119 1.1045749 1.070208
12.991488 -1.7893691 1.0721009 1.051719
13.493904 -1.8119154 1.0375812 1.1074479
13.753327 -1.814971 1.0199378 1.0714451
14.174356 -1.6629124 1.0601039 1.1087543
14.606394 -1.8057771 1.0567774 1.1067984
15.04994 -1.8018674 0.99902129 1.113174
15.450938 -1.7390907 1.0365033 1.0807468
15.896898 -1.7420979 1.0051596 1.0319338
16.249428 -1.8135555 0.96921569 1.0698552
16.584618 -1.8890933 0.93815744 1.0543985
16.969616 -1.7461132 1.0475937 1.0476062
17.45145 -1.8397014 1.005294 1.0541688
17.799156 -1.767772 1.0113949 1.049459
18.145508 -1.8274823 0.86825854 1.0400995
-2.0508308 -1.4496638 1.164228 1.039016
-1.8236971 -1.5136631 0.94788837 0.25201598
-1.5399821 -1.5179684 1.0881388 0.068851694
-1.0004854 -1.475044 1.1797324 0.55208945
-0.7033087 -1.5669518 1.1577888 0.064490505
-0.30393419 -1.4677447 1.1684966 0.33292609
0.14960182 -1.5660899 1.0902834 0.068374023
0.60624087 -1.4649528 1.1728919 0.067479253
1.0470947 -1.5192208 1.1608226 0.065217763
1.4012321 -1.5258582 1.0918481 0.068421021
1.8169866 -1.4111087 1.1421762 0.068859614
2.4859407 -1.5524275 1.1437782 0.067998052
3.0395265 -1.5249817 1.1548016 0.070535704
3.4665194 -1.5758713 1.1541855 0.068178236
3.8293748 -1.5197815 1.1715015 0.06804508
4.1965756 -1.5662947 1.1700565 0.081829488
4.5251608 -1.5535812 1.1821542 0.066416025
5.9375525 -1.594461 1.1600182 0.071929812
6.2714529 -1.5933099 1.1628201 0.069172859
10.920747 -1.5975872 1.1718524 1.1080198
11.454629 -1.5918384 1.1046085 1.1197996
11.61975 -1.5076963 1.144362 1.1195488
12.243034 -1.5789849 1.1141193 1.1182957
12.995026 -1.5458438 1.1708827 1.0703319
13.309587 -1.5202308 1.1748884 1.0706139
13.780888 -1.5965089 1.1270881 1.1070175
14.13072 -1.4399579 1.1761298 1.1078944
14.596051 -1.490187 1.1304547 1.1085006
14.822792 -1.4253588 1.1557422 1.1085215
15.404055 -1.4684153 1.0963166 1.1167293
15.82302 -1.4411451 1.136596 1.0740132
16.245178 -1.452034 1.1098862 1.1154134
16.490904 -1.5352213 1.1900729 0.58460677
17.024504 -1.5435179 1.1548852 0.82926941
17.371799 -1.5181129 1.1225951 1.0481852
17.948904 -1.5128403 1.1058316 1.0791795
18.1154 -1.4849036 1.1100905 1.0397233
-2.1441927 -0.93790579 1.0873467 0.052018635
-1.8982965 -1.1295351 0.93489534 0.073497914
17.771141 -1.0521119 1.0844629 0.97900367
18.10623 -1.0486975 1.1690477 1.0574808
-2.142488 -0.64779359 1.1530371 0.054260731
-1.965004 -0.77410293 1.1306472 0.089217559
18.095758 -0.55793697 0.90195471 1.0468984
-1.8422542 -0.24913207 1.0196805 1.1049026
17.7428 -0.35895181 0.9281522 1.0939846
18.036312 -0.1156341 0.98269284 1.0511905
-2.034399 0.3923156 1.0276853 0.050877571
-1.8770366 0.18946752 1.0746143 1.1058104
17.87978 0.25373152 1.0492713 0.79317033
18.005154 0.20882817 1.1349689 1.0510495
-2.1655006 0.72779453 1.0168362 0.050125122
-1.9059589 0.56218076 1.0464838 0.85303444
17.855694 0.59136385 1.1242374 0.72855562
-2.0211253 1.1422013 1.030732 0.42230573
-1.9272304 0.94879961 1.0995924 1.0164814
17.685463 0.93981075 1.0585306 0.62114275
-2.0160451 1.5349634 0.92798638 0.14818799
-1.9559289 1.3841563 1.0614481 0.58976895
17.592518 1.3662406 1.009125 0.085714214
17.912489 1.4843726 0.96876132 1.0154551
-2.0124364 1.8297585 1.0936908 0.20966409
-1.9725943 1.6893222 0.9658162 0.13795486
17.571056 1.8372455 0.92679095 1.0860901
17.867702 1.8607235 1.1391659 0.98746794
-2.0157487 2.2839477 1.0567738 0.57786018
-1.9923353 2.169538 0.84804726 0.3959876
17.57362 2.161943 0.93812299 0.33822048
17.798477 2.0617065 1.1539308 0.89592218
-2.0239043 2.5038896 0.9369033 0.83943963
-1.9020038 2.5511026 0.95205754 0.7796191
17.554924 2.6004651 1.0684049 1.0852817
17.843918 2.6217895 0.90791065 0.11005653
18.017387 2.735436 0.82630181 0.04338944
-2.0648651 3.0648022 0.87906754 1.1025453
-1.7884644 3.1195164 0.93500388 1.0772872
-1.4378492 3.0724039 0.84401757 1.0692043
-0.96312487 3.1663098 0.93467301 1.0764093
-0.59161925 3.1381903 0.8614397 1.0687346
0.060592905 2.8276443 0.80444854 1.0694237
0.57881653 2.8989105 0.82440823 1.0749373
1.0255582 3.0889006 0.89155608 1.0700498
1.2887679 3.1638527 0.80457681 1.0654135
1.8110479 3.1766653 0.80047256 1.0656643
2.1571305 3.0587664 0.83508444 1.0710664
2.84969 3.0967698 0.84583044 1.0719299
8.2813292 3.1798446 0.82176304 0.11428547
9.6767836 3.1692693 0.81918049 0.11378479
11.149161 3.0871272 0.80216718 0.11328316
12.077854 3.0789056 0.83149678 0.11303234
13.230726 3.1369956 0.8301571 0.11102772
14.340621 2.9778085 0.84009767 0.11253166
15.785088 3.0057428 0.86916816 0.11228085
17.505829 3.0707955 1.0099343 0.59871447
17.799931 3.0506907 0.91024309 0.98819727
18.017698 3.0885551 0.90583515 0.048182964
-2.0751195 3.4128633 1.0069982 0.77295506
-1.8451879 3.4782004 0.83020115 0.30416569
-1.4222233 3.5880983 0.89663422 0.11189407
-1.0410115 3.5720029 1.1182305 1.0660301
-0.63152951 3.5707934 0.93168592 1.0628505
-0.21414486 3.4384813 0.91885132 0.94815159
0.2445008 3.4183104 0.99291861 1.0162752
0.75621319 3.4634728 0.95487022 0.94987452
1.0077386 3.3364193 0.81434095 0.17626122
1.3881719 3.3844657 0.90939081 1.0075344
1.9157565 3.344928 0.82808781 0.13427877
2.1809173 3.4047766 0.84428024 0.34261429
2.4639807 3.3847258 0.8990519 0.59496737
3.0280409 3.4173484 0.93547589 1.0786967
3.3353195 3.4224539 0.87249094 0.5325188
3.8585169 3.5322118 0.83570683 0.56051081
4.2233281 3.5212092 0.84824765 0.59028405
4.7320261 3.4879551 0.85392487 0.14480864
5.0308433 3.5237784 0.87366992 0.17284328
5.3589683 3.5605278 0.88575637 0.14356968
5.7293143 3.4632795 0.86599702 0.12038764
6.2679996 3.4001188 0.82756269 0.12825145
6.6565237 3.4496109 0.86435938 0.14414908
7.0218792 3.4202845 0.85686898 0.11706158
7.4668951 3.4499526 0.86993635 0.12017621
7.7472525 3.3305063 0.8439998 0.23404892
8.0849342 3.4745862 0.90976429 0.11614531
8.591445 3.4657972 0.90333533 0.23286742
9.0780172 3.3853102 0.88265514 0.11988594
9.4252405 3.4131324 0.89581454 0.16877757
9.7148829 3.537761 0.93703222 0.11340345
10.218102 3.4481544 0.91517377 0.10324258
10.611921 3.4640803 0.88080019 0.16636148
10.915983 3.4584842 0.93287551 0.10684141
11.392855 3.5215483 0.80569935 0.10703059
11.850213 3.4962955 0.95499313 0.093734264
12.298767 3.5904651 0.81220484 1.0892699
12.665668 3.574219 0.81431055 1.0857308
12.929187 3.4623935 1.0193986 0.11209723
13.268459 3.421536 0.81079161 0.10723992
13.791168 3.471998 0.81144226 0.16585857
