# .PCD v0.7 - Point Cloud Data file format
VERSION 0.7
FIELDS x y z intensity
SIZE 4 4 4 4
TYPE F F F F
COUNT 1 1 1 1
WIDTH 1144
HEIGHT 1
VIEWPOINT 0 0 0 1 0 0 0
POINTS 1144
DATA ascii
-0.0013155462 3.9006274 1.0001073 0.11725044
0.054014418 3.9736948 1.0668836 0.11699963
0.56273127 3.8960199 1.1234158 0.60308337
0.77341247 3.8010769 1.1822155 1.0602407
0.92075765 3.8157015 1.1901739 1.0609347
1.2658806 3.868525 1.155189 0.82525206
1.4750626 3.8597927 1.1481106 0.84719014
1.6676338 3.8549993 1.1866199 1.0751381
1.8998572 3.88901 1.1859866 1.0839344
2.0801535 3.8663611 1.107233 0.82618225
2.2631195 3.9006014 1.1738942 0.23516883
2.4508688 3.8838377 1.1793919 1.0806651
2.7570183 3.913754 1.1744465 0.3542468
2.9519944 3.8655519 1.1121228 0.6003499
3.1699905 3.8859916 1.1553783 0.56747329
3.2868204 3.9254358 1.1692897 1.0283692
3.6597867 3.8297722 1.1357876 1.0565075
3.8664899 3.8441052 1.1506491 1.0692121
4.1446781 3.9158373 1.1381354 0.58812189
4.2628679 3.9080296 1.1648302 0.94398654
4.5409355 3.8757946 1.1807179 1.0731094
4.6951175 3.8992293 1.1792035 1.059899
4.929286 3.9016812 1.1713562 1.032006
5.1145716 3.8911018 1.1651378 1.0328341
5.323555 3.9379642 1.1368365 0.094935179
5.4775124 3.8524551 1.1480701 1.0464499
5.6515102 3.8617516 1.1626881 1.0171924
5.8778648 3.8436193 1.122576 0.57605982
6.1164265 3.9036148 1.103215 0.092984304
6.3361769 3.891489 1.1863534 1.0336542
6.4952421 3.9266744 1.1634769 0.82757676
6.7854095 3.8151832 1.0227015 0.0353508
6.9412484 3.8783369 1.1844063 1.0324115
7.1060977 3.8674083 1.1436076 0.82166672
7.283514 3.8975015 1.0944189 0.11146832
7.4986115 3.8557954 1.0501106 0.074294031
7.7110157 3.9142573 1.1383183 1.0677439
7.8981419 3.9039993 1.1007428 0.58996594
8.090951 3.9360166 1.082291 0.073107153
8.264226 3.9152198 1.1037799 0.59071052
8.4828691 3.888587 1.0673431 0.10892371
8.7099037 3.9051764 1.074752 0.10789414
8.9510489 3.8787484 1.0466615 0.07263422
9.096158 3.8701692 1.0435469 0.60209697
9.2723398 3.9002013 1.0557463 0.97234881
9.5358906 3.8383548 1.0214584 0.97290051
9.6900187 3.8884377 1.0384102 0.84611118
9.8592377 3.9044225 1.0365666 1.066478
10.075424 3.8992345 1.022024 0.093380228
10.282285 3.8897991 1.0372977 0.095347203
10.504108 3.9107985 1.0185947 0.10587119
10.707762 3.9433327 1.0415616 0.075426608
10.84993 3.9418397 1.0312326 0.071782425
11.086908 3.9413126 1.0412118 0.040331826
11.250821 3.9666257 1.0547445 0.039019831
12.737934 3.9257593 1.0368977 0.10861149
12.869839 3.8908 1.025224 0.10874964
13.088976 3.9015837 1.028717 0.10982329
13.29042 3.9360738 1.0510805 0.11317024
13.474995 3.9002948 1.0334256 0.11174896
13.717967 3.8674743 1.0206184 0.1093377
13.967072 3.9045606 1.0403657 0.60383457
14.094516 3.8734908 1.0178459 0.12708896
14.312941 3.9658458 1.0629451 0.1122742
14.448648 3.8983634 1.0342481 0.11190426
14.740737 3.9128499 1.0369422 0.11460775
14.851572 3.8555269 1.0093579 0.11395359
15.084106 3.9703817 1.0663427 0.1102204
15.707232 3.9624026 1.0515567 0.10445042
15.807715 3.9608719 1.0073297 0.03555584
16.102757 3.9523306 1.0412793 0.09577179
16.287167 3.9441161 1.0230789 0.074809074
16.452833 3.9230857 1.0078323 0.037835121
16.775002 3.9491198 1.0293274 0.11407757
16.939507 3.9842486 1.0518408 0.077410698
17.160038 3.9566488 1.0222387 0.036744118
17.425224 3.9179711 1.0036696 0.037674904
17.762012 3.9114509 1.0449224 0.077001572
17.969995 3.8609891 1.1449485 0.14067151
18.007229 3.9301138 1.0513649 0.058024209
-1.8547763 4.1097794 1.1683584 0.083068587
-1.6474488 4.06213 1.1778046 0.22230305
-1.5486748 4.1893144 1.1894445 0.10466504
-0.9589299 4.0468264 1.0888611 0.11625004
-0.74173653 4.0762248 1.079282 0.1164999
-0.2683042 4.0943213 1.0956858 0.11975002
-0.020691214 4.0373201 1.0933437 0.11674976
0.0025602891 4.1109371 1.121272 0.11625004
0.47103959 4.1122365 1.1138816 0.11637497
0.70320117 4.0540991 1.0794619 0.11999989
1.1342419 4.0791459 1.110203 0.11950016
1.2354007 4.004231 1.0973097 0.11625004
1.6668165 4.0598745 1.0558951 0.031000137
1.9702487 4.1435537 1.1675613 0.11654311
2.0800841 4.1154909 1.1403968 0.096312523
2.3030653 4.0826826 1.1638722 0.11708677
2.4353366 4.0793619 1.144182 0.095686436
2.8388007 4.155118 1.1733179 0.12075043
3.179652 4.1040111 1.1784177 0.11965179
3.2775342 4.0750608 1.169337 0.11945486
3.5403199 4.0673857 1.1766026 0.1186291
3.673449 4.0581598 1.1714168 0.11827111
3.9455361 4.0331216 1.1517823 0.1176331
4.9477763 4.0304203 1.1812823 0.073265314
5.1377192 4.0559673 1.1901722 0.073373973
5.3580523 4.0409684 1.1733596 0.032203436
5.4601221 4.0407639 1.1682467 0.031782866
6.1757441 4.059093 1.1602644 0.03438282
6.3646321 4.0558281 1.1569655 0.033786178
6.4917083 4.1067801 1.1821992 0.033493996
6.7098961 4.0280375 1.1608055 0.11586189
6.8598647 4.0286407 1.1643221 0.092456698
7.1505179 4.0626354 1.1451677 0.035078764
7.267601 4.099154 1.1804998 0.07306838
7.7623448 4.0320311 1.119542 0.036075532
7.9107332 4.0246863 1.1174787 0.034371793
8.1774864 4.0377855 1.146572 0.10514033
8.3048935 4.0830545 1.1726677 0.10927368
8.4850616 4.1222734 1.1795758 0.09214595
8.7494125 4.0841036 1.1491551 0.073583275
8.87747 4.0581532 1.1505151 0.10802614
9.0371933 4.0771208 1.1562959 0.10718267
9.2407694 4.0661678 1.1319861 0.58468866
9.5326195 4.0652761 1.1128945 1.0332152
9.7027426 4.0891881 1.1187444 0.83227861
9.8879128 4.1001639 1.1313244 0.56608206
10.072179 4.117043 1.1320567 0.10543666
10.262007 4.111834 1.141624 0.076778941
10.545643 4.1048627 1.1224995 0.075212196
10.674244 4.047946 1.1075907 0.036656469
10.910254 4.0855074 1.1082413 0.091369137
11.102983 4.0418057 1.0896682 0.072532475
11.287876 4.1607866 1.132848 0.074443072
11.497934 4.1493111 1.1265289 0.095667347
11.700218 4.1424541 1.1405289 0.040110275
11.833525 4.1744189 1.1554255 0.039040238
12.167966 4.155961 1.1501836 0.098610371
12.265408 4.1014585 1.1256952 0.10623688
12.521586 4.1182766 1.1363688 0.10891016
12.682685 4.1370935 1.1471241 0.10825919
12.936211 4.1199098 1.1347108 0.11085399
13.049996 4.1084123 1.1314409 0.11122176
13.295099 4.1482115 1.1585826 0.11021202
13.503237 4.0541897 1.1046443 0.11156869
13.713622 4.1071701 1.1406956 0.11063144
13.905691 4.0933084 1.1305494 0.11161067
14.117153 4.0780592 1.1164143 0.11233082
14.238851 4.0277858 1.0899577 0.10859809
14.531113 4.1022902 1.1332994 0.11088188
14.631844 4.0341182 1.1030988 0.1107741
14.903826 4.107255 1.1289802 0.10506916
15.105946 4.1009817 1.1182489 0.093534112
15.292902 4.1491699 1.1400635 0.074763775
15.499407 4.0935888 1.1060989 0.075001806
15.645255 4.0486059 1.0765429 0.099975646
16.069902 4.0835133 1.1005118 0.076461941
16.332878 4.0376463 1.0814028 0.10502818
16.598724 4.0801568 1.1060454 0.11650753
16.763557 4.1575766 1.1331296 0.036279202
16.936352 4.1442518 1.1241274 0.076323986
17.051414 4.0749464 1.0866387 0.076091483
17.231655 4.0507655 1.0707707 0.037790775
17.706161 4.0862923 1.1503175 0.099775843
17.971737 4.0555038 1.1211801 0.10518499
18.002657 4.1421919 1.062031 0.054425806
-1.8435402 4.220645 1.1368868 0.11549997
-1.6221797 4.2144313 1.1963902 0.089314491
-1.4992827 4.2784252 1.1828377 0.10364845
1.9045753 4.2244391 1.1649833 0.12374973
2.0677905 4.2134986 1.1265346 0.032062292
2.2423539 4.2777581 1.1613894 0.032500267
4.0651321 4.2887011 1.165506 0.034124851
5.7992883 4.3437314 1.1991856 0.039500237
5.9365163 4.3948307 1.1876493 0.039750099
6.4467821 4.372067 1.1647781 0.038249969
8.4407749 4.394628 1.1851827 0.04224968
8.6837902 4.2156134 1.193524 0.038142204
8.8494473 4.2006211 1.1877379 0.038534164
9.3100014 4.2464013 1.1902406 0.038987398
9.6127205 4.2113743 1.1850474 0.039627075
9.8204565 4.2391286 1.1947856 0.11068201
10.143763 4.2079682 1.1868367 0.038390636
10.337209 4.3829055 1.1920815 0.045771599
10.464539 4.3022528 1.1266956 0.042750359
10.741837 4.2162046 1.1831533 0.03890872
10.885195 4.2660317 1.1766281 0.1109302
11.107559 4.2290392 1.1797092 0.037014723
11.329305 4.2298851 1.1804049 0.03919667
11.47079 4.2574787 1.1874387 0.040631987
11.677605 4.2723737 1.19186 0.078397527
11.922664 4.2760029 1.1921847 0.10874286
12.137468 4.2500458 1.1838747 0.11050336
12.339298 4.2232122 1.1775784 0.10994127
12.503925 4.2333651 1.1841977 0.10993143
12.719098 4.2264538 1.1879591 0.1110789
12.906533 4.225625 1.1931779 0.10948966
13.059082 4.2257643 1.1719108 0.14139244
13.309435 4.2639313 1.179117 0.10985415
13.481148 4.300931 1.1604568 0.22967876
13.730217 4.3005962 1.1612051 0.039344188
13.937826 4.3590822 1.1862979 0.040327467
14.100945 4.3554392 1.1793299 0.103948
14.340652 4.2308331 1.1774094 0.096226633
14.519968 4.3657589 1.0993036 0.046813965
14.716002 4.225184 1.198614 0.11488342
14.885148 4.2594895 1.171061 0.077140331
15.08429 4.2782764 1.1702659 0.079437494
15.307933 4.2745266 1.1327844 0.039012313
15.41416 4.3397789 1.1358118 0.045391321
15.729198 4.3495293 1.1766356 0.039610386
15.917101 4.2508807 1.1722791 0.076673985
16.510525 4.2622852 1.082999 0.043665886
16.725876 4.2784433 1.1871959 0.037020206
16.87574 4.3230643 1.1350689 0.04633224
17.359669 4.3584857 1.0794294 0.053732991
17.471512 4.3674355 1.0696071 0.052331209
17.776903 4.3554859 1.1631594 0.089941949
17.865845 4.2895608 1.138962 0.10063596
18.0042 4.3078523 1.1271944 0.17729466
2.556571 4.4135785 1.193179 0.033249855
4.2212992 4.443325 1.1943635 0.036999702
5.9497099 4.4040413 1.1848733 0.039750099
8.4602957 4.4017906 1.1871108 0.04224968
10.337952 4.4255366 1.1972454 0.045749664
11.056386 4.5684514 1.1896379 0.54587471
11.393867 4.4107604 1.1830095 0.047263622
11.420751 4.4357209 1.1930885 0.047394753
11.874912 4.4274392 1.1992042 0.04975605
12.502703 4.4207478 1.1869935 0.048935056
12.70599 4.5009971 1.1922152 0.048875481
12.893774 4.4437675 1.178407 0.049192429
13.046141 4.4307413 1.1876411 0.05130069
13.570612 4.4347334 1.1884013 0.046476841
13.677291 4.4353819 1.1911838 0.051667571
13.96746 4.4600701 1.1864853 0.16181867
14.170006 4.4964828 1.1560483 0.050368264
14.326745 4.4730053 1.1876495 0.053467687
14.506844 4.5268807 1.1740224 0.051588416
14.64873 4.4891844 1.1935396 0.054032724
14.935028 4.4895415 1.1803777 0.05390586
15.152481 4.4767108 1.181869 0.052138954
15.30563 4.5110145 1.185375 0.054399628
15.491809 4.487009 1.1869855 0.054046929
15.732823 4.5428376 1.1893673 0.054644577
15.872252 4.5069551 1.1823273 0.055295557
16.1497 4.4766417 1.1651658 0.17979614
16.267944 4.5263805 1.1838398 0.055727787
16.494341 4.5282621 1.1407523 0.053654719
16.687492 4.5266676 1.187919 0.056145079
16.864418 4.4918847 1.1045659 0.049631119
17.130344 4.5394473 1.1881094 0.056483641
17.264591 4.5649548 1.1713133 0.056206882
17.576162 4.5092697 1.1626985 0.056573767
17.73506 4.471344 1.1784467 0.053131331
17.915577 4.4347458 1.1945248 0.041914377
18.011906 4.5120058 1.1875492 0.054049462
16.12266 4.6045475 1.1956956 0.052098751
16.774384 4.6199951 1.1902065 0.054122329
16.928577 4.636095 1.1841352 0.054013252
17.306805 4.6077623 1.1929351 0.056385517
17.94854 4.6242704 1.1907208 0.078721702
-1.9018644 -2.8897128 1.233014 0.049018383
-1.781759 -2.860543 1.2225983 0.048986912
-1.813217 -2.6158886 1.396772 0.049406052
-1.773932 -2.6489201 1.2581956 0.049054883
-1.5550749 -2.6806655 1.3380908 0.049285889
-1.3698668 -2.7156062 1.2910759 0.049256325
-1.9253854 -2.4520545 1.3026944 0.049279213
-1.7457271 -2.4849734 1.2525841 0.049248457
-1.4465473 -2.5352192 1.2056338 0.048905373
-1.8108761 -2.2531033 1.3473229 0.049633801
-1.7888823 -2.2704163 1.3247964 0.049868941
-1.4433606 -2.2473242 1.3144557 0.050791264
-1.3677682 -2.2750633 1.3749896 0.049580097
-1.8197899 -2.0135217 1.2513053 0.049431529
-1.6927156 -2.1003923 1.2920702 0.053155184
-1.5317329 -2.0295253 1.2573831 0.054633141
-1.3353668 -2.1842525 1.2881081 0.050971031
-1.8239257 -1.8972027 1.2576654 0.049608473
-1.7351738 -1.8317255 1.2828245 0.063136995
-1.5048823 -1.8449311 1.2731097 0.093214571
-1.2216973 -1.8483081 1.231231 0.088371992
-1.1828138 -1.8786069 1.2141674 0.088371992
-0.92531693 -1.8343289 1.2176584 0.093779564
-0.46717715 -1.8214078 1.2298806 0.094244957
-0.27804625 -1.8218918 1.2043353 0.09254837
-0.12386766 -1.8170037 1.2386303 0.094350815
4.1201262 -1.8855931 1.205603 0.056750298
4.9103227 -1.8914196 1.21287 0.055749893
5.004487 -1.8512889 1.2318949 0.055500031
7.9190445 -1.811307 1.2081548 0.06053257
17.593147 -1.818686 1.3044512 0.048564911
-1.8282294 -1.6923285 1.2832615 0.052794769
-1.7131007 -1.7386062 1.3371675 0.058461007
-1.5159705 -1.7559223 1.3097289 0.066409506
-1.3240347 -1.7079678 1.2628214 0.065665714
-1.1236932 -1.6615944 1.3018396 0.089196205
-0.82917982 -1.6571624 1.2743382 0.092658997
-0.65763724 -1.736154 1.2667441 0.093892336
-0.52345431 -1.7402639 1.2615414 0.094244003
-0.24209741 -1.6343179 1.3192099 0.094623834
-0.15707241 -1.7370754 1.2713788 0.094607353
2.4322 -1.6965735 1.2361099 0.081355877
2.9265418 -1.6554477 1.233574 0.077171624
3.0655706 -1.6493249 1.2238128 0.072642177
3.3465304 -1.6634452 1.2269406 0.076616779
3.4765408 -1.6530713 1.2244842 0.07218688
3.7333577 -1.6845551 1.2175918 0.075874984
3.805563 -1.6434666 1.2650717 0.08301425
4.1282163 -1.6649019 1.2244174 0.075128123
4.2405043 -1.6505456 1.2266823 0.076023541
4.5071001 -1.6686373 1.2482488 0.068152189
4.6666651 -1.628267 1.2814411 0.06256485
4.9448066 -1.6511493 1.2334858 0.066226095
5.0981312 -1.6583464 1.2543533 0.084413804
5.3068409 -1.6716115 1.2269723 0.076478966
5.5357084 -1.6623046 1.2156721 0.074844092
5.7242699 -1.6809121 1.227551 0.083415218
5.9735899 -1.7234033 1.2143464 0.086713314
6.1519461 -1.6424615 1.2384319 0.078272983
6.7072058 -1.6233504 1.2416854 0.072648823
6.8876348 -1.6494863 1.2438908 0.065237999
7.0802693 -1.6874558 1.2163744 0.071404383
7.3024769 -1.6480439 1.2344627 0.074950218
7.4954128 -1.6562284 1.2530153 0.073152155
7.6434894 -1.6374903 1.2364028 0.065952301
7.8126783 -1.6084564 1.2818818 0.062227249
8.1033115 -1.7210097 1.2400219 0.066794395
8.2837543 -1.7110972 1.2366235 0.068652153
8.4873219 -1.723913 1.246176 0.063132167
8.6460533 -1.6389741 1.2297008 0.071901798
8.8868046 -1.6264937 1.276728 0.06211412
9.0768461 -1.7580624 1.2001927 0.063043594
9.2846394 -1.7513015 1.2303848 0.059826374
9.4702578 -1.6242456 1.2943554 0.05940938
9.7366152 -1.6778951 1.2329462 0.058701515
9.8625822 -1.6231213 1.2626635 0.057080269
10.13001 -1.7148138 1.2126874 0.057999611
10.225391 -1.6715565 1.2348406 0.05819118
10.507736 -1.681915 1.2217832 0.067943573
10.927901 -1.6180375 1.2466476 0.060837746
11.114498 -1.6415758 1.2218714 0.059184551
11.502048 -1.610509 1.2435888 0.062347412
11.624262 -1.6491318 1.2089393 0.05915308
11.899223 -1.6609399 1.2063937 0.066562176
12.501698 -1.6140865 1.2158549 0.062347412
17.525309 -1.6938566 1.2344334 0.05212307
17.649307 -1.7200782 1.3105383 0.051190376
17.943655 -1.7454478 1.3064518 0.049760818
18.054945 -1.6550294 1.2220783 0.050839424
-1.8370378 -1.5533252 1.2792363 0.051232852
-1.7099011 -1.5651653 1.3771782 0.087637901
-1.4946913 -1.5218805 1.3557712 0.095443726
-1.238858 -1.5343883 1.3724382 0.088528514
-1.086431 -1.4634271 1.3647078 0.092643082
-0.88608652 -1.4827774 1.3668153 0.092770576
-0.72810245 -1.5857594 1.3433621 0.094711304
-0.46813455 -1.4936442 1.3664656 0.093427151
-0.31964982 -1.5269854 1.3755953 0.095059603
-0.025812805 -1.5293267 1.366672 0.093937397
1.6021429 -1.4654163 1.3214258 0.069397561
1.9215629 -1.4035188 1.3916439 0.081840143
2.1272769 -1.5452726 1.3001244 0.07573875
2.4687326 -1.5053934 1.3268375 0.079469815
2.6826601 -1.4638896 1.3352692 0.076505661
2.8351388 -1.5344975 1.3123842 0.082350068
3.0959845 -1.5035208 1.2955481 0.072488561
3.2285788 -1.4946207 1.3060021 0.071310431
3.5260267 -1.5601685 1.2732775 0.071272686
3.6797369 -1.4728601 1.3089272 0.068750024
3.910388 -1.5518403 1.2965012 0.078201354
4.1335711 -1.5111432 1.3033814 0.075790517
4.3050833 -1.5625386 1.2771897 0.074688256
4.554997 -1.4833173 1.3152809 0.07178054
4.7234125 -1.4960008 1.3105974 0.069145337
4.9373617 -1.4730656 1.325532 0.076648951
5.1201468 -1.5042214 1.3002307 0.070347071
5.3176155 -1.5225506 1.2941852 0.077471435
5.4837646 -1.4993614 1.3225107 0.082015157
5.7319193 -1.5115938 1.3083205 0.081671774
5.8784623 -1.5399804 1.2979836 0.082958281
6.0865951 -1.5152941 1.2890103 0.074254423
6.2134142 -1.4488931 1.3501067 0.075504303
6.4585752 -1.4634759 1.3248616 0.069124877
6.6938915 -1.5553523 1.2794472 0.078421116
6.8637724 -1.454057 1.334059 0.06999138
7.1146517 -1.4319928 1.3274281 0.073213488
7.2993145 -1.4269733 1.3738492 0.088435173
7.5108399 -1.431967 1.351493 0.064423084
7.6750164 -1.5141242 1.3315153 0.062960297
7.8204899 -1.4824767 1.3397588 0.063242316
8.1093149 -1.4908514 1.3444936 0.06263575
8.2821655 -1.528105 1.3480449 0.064927101
8.4523602 -1.4012265 1.343109 0.067703247
8.6985312 -1.4505472 1.3693763 0.063072503
8.8106737 -1.5620563 1.3038257 0.062286854
9.1035366 -1.5533059 1.3141422 0.072504997
9.2753296 -1.5096478 1.3328218 0.067018747
9.5064697 -1.5270734 1.3102934 0.057125092
9.6661129 -1.5818362 1.2847229 0.055749893
9.8890324 -1.4704534 1.3383909 0.056305885
10.188077 -1.4624432 1.325121 0.05700016
10.513905 -1.4287908 1.3408046 0.057905197
10.647838 -1.4578013 1.3264472 0.05880475
10.922026 -1.4962499 1.2494035 0.089265704
11.075226 -1.4586 1.2482834 0.092857152
11.33773 -1.4811816 1.2275095 0.090944886
11.465502 -1.4694424 1.2421211 0.085196495
11.711002 -1.4755815 1.2524512 0.079807639
11.894247 -1.45578 1.251487 0.076110065
12.058693 -1.4249403 1.2626452 0.076891422
12.566032 -1.5211089 1.2610162 0.061481893
12.686176 -1.4434408 1.3059658 0.061614037
12.859972 -1.4451482 1.3005855 0.071381569
13.197208 -1.5079277 1.2509122 0.062392712
13.337354 -1.4686368 1.2614764 0.070167467
13.45018 -1.4385382 1.2759702 0.064449906
13.967183 -1.4407728 1.262465 0.062683105
14.08585 -1.5100412 1.2199562 0.065591693
14.468479 -1.5238584 1.2383063 0.059928417
14.710625 -1.5266309 1.2141467 0.065490007
15.046629 -1.4562905 1.2629961 0.060447454
15.29405 -1.4272783 1.2659545 0.062587619
15.55728 -1.5463494 1.227263 0.056527346
15.696999 -1.4811406 1.2234744 0.074435756
15.937521 -1.4852307 1.2319466 0.073987313
16.10503 -1.5333577 1.2254512 0.058907799
16.26442 -1.484153 1.2439072 0.059443206
16.555243 -1.4482808 1.2178736 0.082394183
16.692736 -1.4103428 1.2334068 0.089156151
16.853331 -1.5558903 1.2120937 0.056876183
17.045322 -1.4619939 1.2039713 0.078601956
17.497595 -1.4063774 1.2032322 0.090865135
17.850613 -1.5025488 1.2260928 0.073873594
18.07872 -1.4840567 1.2569687 0.093324095
-1.8554165 -1.2711887 1.2761809 0.051890876
-1.7633321 -1.3798881 1.3513756 0.094711304
2.3015571 -1.3641788 1.3717535 0.070120446
3.197011 -1.3436239 1.3709747 0.071325265
3.4351716 -1.3616195 1.3869202 0.074157447
3.6410439 -1.3558813 1.3657578 0.07198064
3.8743768 -1.3420978 1.373322 0.06899035
4.0745206 -1.3855261 1.3718297 0.07596153
4.3009839 -1.3214977 1.3781731 0.073417336
4.7490115 -1.3663406 1.3737049 0.074203834
4.9103613 -1.3642701 1.3766432 0.072161511
5.1166191 -1.3784275 1.3914906 0.084085464
5.3115349 -1.365273 1.3699604 0.072237968
5.5122671 -1.3761804 1.3526405 0.07149756
6.3043098 -1.3759428 1.366694 0.08002764
6.4962082 -1.3713543 1.3940282 0.086046219
6.7214999 -1.3454626 1.390521 0.075848579
7.1553364 -1.3221028 1.3879758 0.06868577
7.3546615 -1.3711088 1.3680986 0.084074974
7.416697 -1.3400805 1.3716638 0.068467498
7.9149718 -1.3849653 1.3910916 0.064999193
8.0793362 -1.381006 1.3862672 0.062757015
8.2836323 -1.3342855 1.3875846 0.075223684
8.4278641 -1.3571305 1.3928415 0.063803911
8.9636679 -1.3614101 1.3797834 0.06583941
9.1696711 -1.3768879 1.3579934 0.066507339
9.3104067 -1.3486092 1.3719958 0.07562232
9.4614925 -1.3658351 1.388623 0.056249619
10.012761 -1.3592812 1.3848753 0.057356834
10.356924 -1.3354824 1.3872428 0.057250023
10.733205 -1.3108797 1.3810393 0.07347548
10.883806 -1.3064063 1.3339624 0.090807609
11.125076 -1.2390326 1.3559564 0.091185629
11.293629 -1.28283 1.3396626 0.086653471
11.458002 -1.3612826 1.292218 0.084396787
11.690561 -1.3025424 1.2979567 0.088612616
11.863319 -1.3692627 1.2416607 0.092339844
12.115822 -1.307863 1.2651234 0.089360654
12.337289 -1.2754482 1.2690995 0.090500355
12.490749 -1.2774475 1.2527274 0.091255814
12.698452 -1.2847326 1.2548704 0.08690802
12.901382 -1.2716568 1.3795341 0.062177181
13.129958 -1.250878 1.3026878 0.079797029
13.291747 -1.2595702 1.2185146 0.090235233
13.525239 -1.2992995 1.2747836 0.076846913
13.652856 -1.2754133 1.3523769 0.064143181
13.939186 -1.2081904 1.2085085 0.089941025
14.089666 -1.2427651 1.2104969 0.088679314
14.32122 -1.3509122 1.2907915 0.068200469
14.493054 -1.2636428 1.258085 0.087155253
14.680594 -1.3358041 1.3342726 0.060949445
14.848744 -1.3169837 1.2614059 0.083297044
15.083173 -1.3022858 1.2846067 0.082107864
15.314035 -1.2918191 1.3524795 0.05793988
15.47604 -1.2376833 1.2475278 0.091154344
15.648426 -1.2897336 1.2227305 0.091153361
15.85631 -1.2883822 1.2514666 0.088680901
16.145618 -1.322047 1.2590549 0.087756798
16.354698 -1.3597455 1.2631292 0.075459003
16.527161 -1.3045034 1.2859089 0.076982588
16.718472 -1.3737108 1.2540798 0.062929153
16.864529 -1.2495499 1.2491629 0.089441255
17.078148 -1.2621017 1.2745275 0.089634836
17.244556 -1.3235679 1.2370708 0.089895174
17.479425 -1.3063035 1.249903 0.07552889
17.746168 -1.2792443 1.2650146 0.065354839
17.952324 -1.2284198 1.3197057 0.052817561
18.051813 -1.3039744 1.2380097 0.093913734
-1.8432982 -1.1570272 1.3824329 0.050830275
10.740673 -1.1951345 1.3912684 0.0926404
10.874546 -1.1804686 1.3922727 0.092271805
11.155527 -1.1276067 1.3980105 0.092271805
11.200857 -1.1559471 1.3795853 0.092271805
11.566975 -1.1169014 1.3784714 0.092163563
11.695618 -1.1174278 1.3701782 0.091615975
11.960948 -1.1130282 1.3590124 0.091567993
12.159807 -1.1506611 1.3302248 0.091450691
12.263468 -1.1629405 1.3180037 0.09176372
12.496458 -1.1130855 1.3373159 0.089297771
12.695248 -1.1349156 1.318393 0.089058876
12.898377 -1.1097872 1.3046113 0.091184914
13.101161 -1.1666172 1.2658908 0.090451717
13.222575 -1.1995167 1.2515601 0.090117455
13.588036 -1.0330108 1.2991365 0.090610504
13.661612 -1.0631676 1.2800131 0.090336114
13.846903 -1.1577485 1.2334363 0.089942284
14.31543 -1.1170187 1.3616369 0.084033847
14.547531 -1.0548751 1.246909 0.089151248
14.652737 -1.1167247 1.2244725 0.088710614
14.93014 -1.0425416 1.3354038 0.090295315
15.077482 -1.0986558 1.2798358 0.089181066
15.298361 -1.1590991 1.3244944 0.078944772
15.480772 -1.0326588 1.2340573 0.088206172
15.615137 -1.1785687 1.3069099 0.090023994
15.94038 -1.0418341 1.3385421 0.090368509
16.119534 -1.0366411 1.3441279 0.088809505
16.317287 -1.086314 1.3113812 0.090172075
16.423368 -1.1227533 1.2915413 0.090618491
16.717941 -1.1459165 1.3236392 0.089231178
16.820045 -1.1781044 1.307075 0.086663842
17.08128 -1.1742806 1.3276447 0.0687356
17.270191 -1.1530433 1.3327203 0.067782521
17.516701 -1.0741259 1.3894486 0.077531286
17.775051 -1.0651495 1.2825658 0.092997193
17.954941 -1.1229095 1.3448536 0.093701184
18.058144 -1.0981849 1.3212852 0.093820274
18.210346 -1.1801627 1.2327945 0.093325615
-1.8517883 -0.89770222 1.3098273 0.053853013
-1.6843398 -0.82120103 1.286069 0.076699257
12.695972 -0.99521536 1.369939 0.091314316
12.884686 -0.94098139 1.3867688 0.089647293
13.364147 -0.85295773 1.3964753 0.09014082
13.471037 -0.93205845 1.3557594 0.090311423
13.723094 -0.99067283 1.339667 0.088338852
14.165386 -0.80105323 1.3756258 0.089647293
14.323021 -0.90476155 1.3223989 0.089642018
14.943508 -0.93736839 1.3933656 0.089987755
15.160414 -0.81871617 1.3339159 0.088515759
15.260108 -0.88490486 1.2988108 0.088588215
15.485381 -0.9446522 1.2950158 0.089007854
15.785469 -0.93271571 1.3715317 0.090639591
15.849588 -0.99959564 1.2416345 0.087914467
16.072884 -0.97524434 1.3747476 0.090345383
16.294952 -0.8296783 1.2780472 0.087898061
16.491987 -0.9353255 1.221195 0.087706804
17.543339 -0.8846314 1.3712497 0.093085289
17.65493 -0.95492077 1.3816928 0.093124777
17.867983 -0.94491744 1.3020616 0.093087062
18.075802 -0.87030381 1.3801204 0.60508978
-1.8522115 -0.73797679 1.302258 0.05528906
14.165875 -0.7918725 1.3864553 0.089176178
14.972178 -0.69742185 1.3984041 0.088470459
15.053789 -0.75206149 1.3720359 0.088219821
15.658504 -0.79930639 1.3789626 0.088862419
15.970205 -0.64964294 1.3808348 0.087455273
16.057175 -0.6655035 1.3622947 0.088036001
16.224766 -0.77867007 1.3061872 0.087971687
17.727436 -0.61226851 1.2721539 0.08890003
17.963509 -0.61252898 1.2401183 0.089521863
18.132183 -0.62645745 1.2148163 0.08985281
-1.8505077 -0.55594313 1.3455763 0.068433523
17.593613 -0.46165714 1.3324227 0.089176178
17.7509 -0.41661042 1.3350041 0.089779779
17.890755 -0.44216648 1.3506186 0.090824902
18.079124 -0.48632497 1.3097763 0.092087954
18.2055 -0.53258753 1.2629815 0.090375423
-1.7499175 -0.3198587 1.3259008 0.075665951
17.597116 -0.39575744 1.3585713 0.089411736
17.744026 -0.32827759 1.3882065 0.090111263
17.950039 -0.35324848 1.3828661 0.090922669
18.113552 -0.3616876 1.3628809 0.090513021
18.217258 -0.38534349 1.3559319 0.090654373
18.020401 -0.057036735 1.3646528 0.088360071
17.983116 0.086141124 1.3100934 0.093300819
-1.6153034 0.2870501 1.2642295 1.1040001
-1.622193 0.56938952 1.2268397 1.1043983
-1.5951135 0.48388451 1.3109347 1.1040001
17.98901 0.55743361 1.3899734 0.096626282
-1.6189427 0.68098211 1.2849214 1.1040207
17.957586 0.61272007 1.3151366 0.086440563
-1.8387568 0.9474988 1.3460221 1.1113126
-1.6269643 0.91043854 1.3168752 1.10524
17.967152 0.86277544 1.3052206 0.087721393
-1.8372542 1.1287673 1.3150454 1.1120625
-1.6357698 1.1242385 1.3531322 1.1056783
17.944736 1.0890927 1.2898037 0.08752358
-1.8519508 1.3992298 1.313501 1.1107502
-1.6387466 1.2417855 1.2800354 1.1055367
17.986681 1.2240541 1.3105605 0.09345293
18.029684 1.3059634 1.3479023 0.06296289
-1.8847542 1.5489993 1.2953973 1.1133749
-1.644654 1.4512219 1.3521965 0.56792861
17.94128 1.4496772 1.3095614 0.087769315
-1.8355989 1.6981434 1.2782319 1.1089394
-1.6518149 1.7050351 1.2667735 0.59595293
17.943335 1.739249 1.2733135 0.08844959
-1.8193387 1.9437172 1.3476124 0.60750282
-1.654953 1.8996642 1.2419207 0.23515274
17.981689 1.907694 1.2792335 0.092394352
-1.8290571 2.1561966 1.2598566 1.1065505
-1.6578679 2.150485 1.2599788 0.37917411
17.958031 2.1561797 1.3490222 0.090520315
-1.8129846 2.3584735 1.3456757 1.0891086
-1.658419 2.2483592 1.2947757 0.10594472
17.94017 2.3271093 1.2864711 0.22357237
-1.8134012 2.4415996 1.2632419 1.0875598
-1.6607318 2.5256395 1.3108523 0.10532006
17.945335 2.4937205 1.2649581 0.15245596
-1.822854 2.6962552 1.2601562 1.0534794
-1.6879324 2.7062197 1.2477764 0.10409727
17.965492 2.6980662 1.2633228 0.093861438
-1.8301148 2.8661623 1.3430402 1.0870482
-1.6610216 2.9247067 1.2829003 0.10794505
17.966936 2.8574946 1.3031893 0.15979333
18.027805 2.8526614 1.3721688 0.046650887
-1.8167443 3.1138902 1.3157109 0.59059572
-1.6711469 3.0664802 1.3211894 0.37098992
-1.5958395 3.1145201 1.2014511 0.048122406
17.954947 3.1176939 1.2382576 0.18939231
18.02746 3.1666772 1.2034849 0.10871696
-1.8136084 3.3282888 1.3236926 0.34270981
-1.6700503 3.2729602 1.3499546 0.21946649
-1.578532 3.2641234 1.2212549 0.04895246
17.953991 3.3066463 1.2842607 0.13564064
18.015535 3.3438618 1.3001451 0.19018196
-1.8701885 3.4375927 1.3114972 1.0820532
-1.6874876 3.4738829 1.3498504 0.34576121
-1.4377391 3.5958209 1.2708319 0.054047585
17.975266 3.4984062 1.3404014 0.10752214
18.021889 3.5652628 1.3585076 0.057735927
-1.8949442 3.7882633 1.2168115 0.050274715
-1.7562122 3.773067 1.2504699 0.0504856
-1.5462642 3.7207093 1.23269 0.050461277
-0.49357867 3.7262802 1.2222911 1.0622832
-0.075781621 3.7806551 1.2077312 1.0588527
0.12358633 3.7896044 1.2108757 1.0616281
0.29090059 3.793689 1.2035663 1.0600739
17.986561 3.7724185 1.23814 0.10384932
18.003168 3.717885 1.2589512 0.10727932
-1.9052322 3.9208336 1.315202 0.050953962
-1.684335 3.840394 1.2712808 0.60402608
-1.5619696 3.8010671 1.2195005 0.10711002
-0.33554873 3.8528161 1.2535827 1.0756627
-0.072975039 3.8645167 1.229755 1.0892158
0.13713585 3.8366613 1.2236605 1.0748527
0.28619125 3.841538 1.2375643 1.0617381
0.55138522 3.9006712 1.2519097 1.075209
0.73328185 3.902303 1.2876018 1.0685785
0.84148729 3.8661871 1.221157 1.0820432
1.0980878 3.9576702 1.2578994 1.0853233
1.2379208 3.9336367 1.2549706 1.0624404
1.5521383 3.9189866 1.2447565 1.0746351
1.6647966 3.880219 1.2154665 1.0882394
1.9291241 3.9276905 1.2177198 1.0902464
2.1189737 3.9668932 1.2600701 1.0887547
2.2418623 3.9317749 1.2100226 0.60457659
2.5207806 3.9372995 1.2156324 1.0915278
2.7404532 3.9801335 1.2093468 0.59193885
2.9455581 3.9786911 1.2083838 0.58818042
3.0446703 3.9421735 1.2397664 1.0710216
3.3973281 3.9908957 1.2645569 1.0781775
3.6908617 3.9962215 1.2130381 1.0595288
3.9306593 3.9817066 1.2338235 1.0580431
4.2736001 3.9358516 1.2155244 1.0579944
4.408092 3.9293435 1.2029611 1.0583124
4.6531043 3.9172626 1.2166535 1.0552363
5.3068218 3.9979186 1.2596986 1.0590363
5.5234442 3.943522 1.2173303 1.0605247
5.8205471 3.9723659 1.2016686 1.0651741
6.1194048 3.9384789 1.2257481 1.0602434
6.2353773 3.9907842 1.2355168 1.0622549
6.7600508 3.964391 1.2384524 1.0633042
6.818718 3.933285 1.2233071 1.0621328
17.975494 3.9098444 1.3432033 0.10684711
18.011402 3.8201706 1.3523853 0.11957803
-1.850559 4.0869055 1.3181722 0.076388806
-1.6399024 4.0605292 1.3337488 0.60832083
-1.5148036 4.1086149 1.2571199 0.054080017
-1.3637619 4.0761566 1.3485208 0.058916256
-0.29412594 4.001318 1.3835825 1.0654411
0.35290295 4.0615158 1.3739628 1.0645635
1.0329957 4.1977134 1.3865561 1.0605459
1.3088837 4.1108837 1.3551831 1.0844208
1.427649 4.1064148 1.3354568 1.0860453
1.9172665 4.0988493 1.2359431 0.58987522
2.1632466 4.0758648 1.2606609 0.12627217
2.2666552 4.0710773 1.2713044 0.36188173
2.4977152 4.1149483 1.2840289 0.36167812
2.7118151 4.0821095 1.255823 0.14876503
3.0451488 4.0826864 1.2754848 0.60539716
3.2768385 4.0736985 1.2715145 1.0729269
3.4989696 4.1349325 1.2745707 1.0013968
3.658314 4.0722661 1.2374272 0.8238194
3.9551561 4.0437222 1.2381951 1.060706
4.1027803 4.1399279 1.2826152 1.0613735
4.2716765 4.1342268 1.2975361 1.0598058
4.4666872 4.0865583 1.2678064 1.0606391
4.7269039 4.0859017 1.287554 1.059474
4.8635378 4.1073437 1.2575238 1.0596875
5.1207809 4.1181002 1.2967279 1.0463898
5.2745275 4.1052179 1.2103195 0.033211231
5.5843163 4.0878677 1.2439091 0.59971762
5.6816921 4.0804591 1.2797508 1.0471196
5.8858471 4.1078072 1.3080922 1.0615599
6.0920076 4.078124 1.2596631 0.93549329
6.3417511 4.1560736 1.2048078 0.03429985
6.4899397 4.1635962 1.3210013 0.93418181
6.680675 4.102664 1.292289 1.0643728
6.8231506 4.1861048 1.2517016 0.11192703
7.1319513 4.1516747 1.2091614 0.074253559
7.2680702 4.1425591 1.2282306 0.55459404
7.4354167 4.063591 1.2457314 1.0755424
7.661397 4.1697531 1.2549487 0.60105062
7.8776965 4.189395 1.2824972 1.0893457
8.0328054 4.1856074 1.2720618 1.0771294
8.2535286 4.1487556 1.2052095 0.10913277
8.5438614 4.1585145 1.2029178 0.11095905
8.6199303 4.1750503 1.2058589 0.11187172
17.965752 4.0434542 1.3524315 0.10229606
18.024635 4.0224276 1.3647013 0.51882374
-1.8771274 4.3171892 1.3094311 0.055447228
-1.6427634 4.2599611 1.3664156 0.16239628
-1.5096054 4.3343191 1.2937055 0.08055865
-1.3862352 4.3130755 1.335953 0.082088947
-1.0401791 4.3568063 1.3151871 0.078484923
-0.84180075 4.3803124 1.3832383 0.1117506
-0.7664181 4.3692093 1.3314614 0.21085486
-0.54288292 4.3862524 1.3345357 0.16051738
-0.27701941 4.3839903 1.3473935 0.08495298
-0.079752356 4.3761978 1.3514423 0.10650969
0.14911477 4.380568 1.3541125 0.10267639
0.36389095 4.3835053 1.3288735 0.093894169
0.4352929 4.330596 1.3634962 0.054875251
0.6401459 4.2391558 1.3459482 0.054761715
1.1110129 4.2960682 1.3541974 0.57319123
1.3094003 4.23455 1.3823671 0.93847871
1.4960487 4.2660441 1.3730223 0.82333887
1.7341142 4.2372112 1.3642781 0.93894714
1.9715219 4.2862244 1.3717847 0.32368249
2.0791163 4.2554445 1.3527308 0.22040522
2.3090472 4.2622967 1.3870615 1.0609939
2.4383364 4.2513332 1.3638299 1.045907
2.6568911 4.2821388 1.36499 0.35221136
2.8700428 4.2573729 1.3657944 1.0765929
3.0884364 4.2254925 1.3473625 0.96483672
3.3418283 4.2560997 1.3653964 1.0612059
3.5095747 4.2507935 1.3581235 1.0454203
3.7027178 4.2914152 1.3733463 0.96332145
3.8696833 4.2945328 1.3600674 0.9554022
4.0962772 4.2431736 1.30935 0.93965375
4.3261547 4.2618155 1.350054 0.99830049
4.4959183 4.2946444 1.3806736 1.061465
4.7036839 4.2567306 1.3623903 1.0627742
4.9219446 4.24754 1.3455557 1.0637989
5.1614199 4.2810163 1.2909454 0.033252239
5.3368607 4.2196026 1.2573457 0.032813549
5.5611658 4.2699556 1.3956437 1.073483
5.6487703 4.2422051 1.3823757 1.0718387
5.9378624 4.2437549 1.363006 1.0257585
6.0697746 4.2177191 1.3584108 1.0866364
6.3292341 4.2276382 1.3492515 1.0806434
6.4306545 4.2561302 1.3543947 1.0250515
6.7050724 4.2352571 1.3236394 0.84521401
6.9059615 4.2574449 1.3331947 0.966281
7.0444603 4.233901 1.3334267 1.0858914
7.2785692 4.2407103 1.3220962 1.0557654
7.4731326 4.2221384 1.3065966 1.0563229
7.6221437 4.2492471 1.2978778 0.84461403
7.8832083 4.2106776 1.2856417 1.0580623
8.0794544 4.3139887 1.3342679 0.83860409
8.281065 4.367341 1.3214202 0.11048171
8.5061779 4.3204622 1.2754005 0.074167043
8.7328968 4.244647 1.2406048 0.10233235
8.9226379 4.3148127 1.2740355 0.10585893
9.1021643 4.3002605 1.2636983 0.10583089
9.3108635 4.3314743 1.2373854 0.83327937
9.4533653 4.3030968 1.2300692 0.59964281
9.6969109 4.3467245 1.2633309 0.10262623
9.8534575 4.3806744 1.2516454 0.039181232
10.121672 4.3252168 1.2505362 0.10174169
10.343529 4.2758055 1.2216954 0.03783166
10.472831 4.3389759 1.2394426 0.074607715
10.752783 4.2856636 1.219312 0.072375685
10.868347 4.2966347 1.2301631 0.079004332
11.14003 4.3360481 1.2323804 0.074491449
11.308809 4.3432412 1.23405 0.074299037
11.509764 4.3658133 1.2400535 0.089563869
11.755268 4.3062563 1.2128079 0.10645019
11.923298 4.3473568 1.2410815 0.10768138
12.115005 4.3140383 1.2332339 0.1074265
12.315714 4.3518896 1.2466674 0.10957743
12.494863 4.2962656 1.2245123 0.10893534
12.65938 4.3629141 1.2630538 0.10966536
12.892563 4.304347 1.2230003 0.1125321
13.079414 4.3180037 1.2402272 0.11154462
13.26271 4.3519316 1.2570523 0.11163861
13.443184 4.2903781 1.2252688 0.1223906
13.699458 4.3670659 1.2761257 0.11089168
13.856405 4.2712231 1.2169688 0.16694215
14.136932 4.3550901 1.2640622 0.11267447
14.244308 4.2959342 1.2421725 0.10789657
14.537393 4.3644929 1.2703493 0.11418629
14.649158 4.3236647 1.2517869 0.11357546
14.902756 4.3772221 1.2629426 0.075548768
15.104056 4.3385472 1.265983 0.043720245
15.203319 4.2548723 1.211242 0.11558151
15.542888 4.3980818 1.2881283 0.11385727
15.752123 4.305944 1.2108219 0.074719906
15.846239 4.3783121 1.2065845 0.03374958
16.157743 4.3869371 1.2542864 0.03441906
16.484856 4.3560691 1.2306581 0.036305547
16.72242 4.3402443 1.2141676 0.037354469
16.823475 4.3375716 1.2115527 0.037762642
17.32546 4.3213043 1.2754167 0.045388222
17.546667 4.3133168 1.3012486 0.044761658
17.946615 4.2813988 1.3771335 0.43509465
18.012472 4.3705163 1.286267 0.053610925
-1.8859636 4.4084759 1.312259 0.057869278
-1.7026404 4.4578762 1.3509276 0.39528292
-1.5051843 4.5253596 1.3479284 0.47944796
-1.2491916 4.4434557 1.3546505 0.10096386
-1.1009532 4.4458952 1.3645537 0.10558873
-0.86222148 4.4473062 1.3882487 0.10533379
-0.66358376 4.4665523 1.3812954 0.10625663
-0.52897751 4.4402876 1.3640863 0.084407657
-0.31451756 4.4363375 1.3654368 0.10698762
-0.058825817 4.4673805 1.3829674 0.10534889
0.16368912 4.4974022 1.3808968 0.10059436
0.27669859 4.4814653 1.392699 0.082592472
0.50872564 4.4406862 1.3619444 0.10505085
0.68927246 4.459219 1.3772869 0.08727812
0.89262199 4.4352922 1.3733735 0.085358158
1.065143 4.4591579 1.3855343 0.096714169
1.2655008 4.4429731 1.3748357 0.11081198
1.4686494 4.4654846 1.3832502 0.10391235
1.721508 4.4382334 1.3941667 0.087560877
1.9252224 4.4517674 1.3818182 0.0691109
2.0684261 4.4668217 1.3503234 0.11012782
2.2958457 4.496109 1.3694706 0.080278337
2.5397186 4.5451903 1.3631189 0.067546099
2.7714629 4.4994411 1.3806595 0.11122502
2.9539862 4.4199009 1.3417006 0.111311
3.1624336 4.4383402 1.3891174 0.068485297
3.2497094 4.4217587 1.3900931 0.059198879
3.4661789 4.4632769 1.3781962 0.11338949
3.7468486 4.4883928 1.3658488 0.10348248
3.8996525 4.5508728 1.3888016 0.076200075
4.0504894 4.4219637 1.3861363 0.057559595
4.3138366 4.5080948 1.3057618 0.065062389
4.5442162 4.557106 1.3766311 0.086981192
4.690558 4.4612074 1.3007975 0.061583877
4.8937387 4.5773044 1.3951302 0.057745948
5.0635376 4.5076399 1.3454564 0.059689783
5.3280945 4.4961472 1.3381388 0.061524045
5.5178413 4.560627 1.3776581 0.087519132
5.7311049 4.5476065 1.3733046 0.065639764
5.9218693 4.5478659 1.3692439 0.08790499
6.1487083 4.4750681 1.3842824 0.076435521
6.2722154 4.5436177 1.3694043 0.080932371
6.5877028 4.5702839 1.3734568 0.088555798
6.6727886 4.5518837 1.3718448 0.081120118
6.9445095 4.5441394 1.3621223 0.081651211
7.1743417 4.5715189 1.3702037 0.093027681
7.2677355 4.5462246 1.3615099 0.15131837
7.4602566 4.57551 1.3769691 0.095850915
7.7006168 4.5637598 1.3640062 0.095292181
7.9482164 4.5700731 1.373848 0.092075318
8.1261597 4.5430079 1.3719258 0.098396942
8.2950449 4.5148244 1.3662481 0.090419881
8.5511303 4.5093069 1.3540385 0.34964067
8.7050314 4.5615377 1.3791076 0.47548777
8.9799795 4.564168 1.3592364 1.0343814
9.1386566 4.4725494 1.3272786 1.0971315
9.2447433 4.5539951 1.3817637 0.091983274
9.4638472 4.4740653 1.3223836 0.60015249
9.7148609 4.5170479 1.3340275 0.093580343
9.9202595 4.5093403 1.3315232 0.098879978
10.152434 4.4470911 1.3017693 0.036818393
10.283041 4.5538626 1.3421969 0.10146193
10.546363 4.5262833 1.3648345 0.10129891
10.76066 4.5191007 1.3805339 0.10141309
10.852883 4.4875393 1.3689241 0.10145934
11.037004 4.5042248 1.3707907 0.10199669
11.24354 4.5239649 1.3774898 0.10200858
11.449337 4.5165548 1.3626748 0.10352579
11.695885 4.5187306 1.3780048 0.10203679
11.826073 4.498641 1.3632473 0.10366701
12.067377 4.5268641 1.371025 0.10413457
12.33951 4.5386453 1.3877898 0.10481785
12.517179 4.4948473 1.3592993 0.10310785
12.78021 4.5236692 1.3595756 0.10258256
12.8985 4.5135508 1.3550456 0.10280683
13.089155 4.511302 1.3521065 0.10265377
13.325958 4.5392857 1.3547471 0.1025913
13.51746 4.529839 1.3514647 0.10314602
13.716451 4.5424824 1.3507056 0.10278216
13.942326 4.5764256 1.3579736 0.10243595
14.136261 4.5329857 1.3439648 0.10425056
14.315218 4.5786662 1.3544779 0.10320576
14.5137 4.5683527 1.3409288 0.10279268
14.736062 4.563344 1.3304011 0.10256524
14.918383 4.5472755 1.3269076 0.1037308
15.092624 4.5592828 1.3315656 0.1033669
15.310597 4.5464048 1.3194268 0.10424932
15.493731 4.5642147 1.318975 0.10221609
15.722129 4.5678887 1.3281788 0.10533958
15.9441 4.5518932 1.2939552 0.10151115
16.030748 4.548975 1.2919408 0.10192477
16.341183 4.5778008 1.3057029 0.10255798
16.414906 4.5721841 1.3062059 0.10300205
16.760685 4.5637374 1.3001587 0.10388198
16.858913 4.5835004 1.3038845 0.098982662
17.11656 4.5772715 1.2962837 0.10256898
17.278538 4.5644588 1.2976384 0.1002084
17.466 4.5692911 1.2771909 0.32735157
17.778055 4.4473143 1.2224066 0.10311599
17.966087 4.4726801 1.309175 0.09619315
18.005688 4.4708395 1.3255579 0.058936439
-1.632129 4.6122022 1.390493 0.11050034
-1.4739281 4.6329308 1.3767227 0.10575581
-1.3338888 4.6803913 1.3978064 0.60546458
-1.0334427 4.6516333 1.3885332 0.10521746
-0.83212113 4.6128764 1.3924558 0.10586204
-0.71307409 4.6078854 1.3763137 0.10820675
-0.30855983 4.6147776 1.3832637 0.1124177
-0.092608079 4.6096931 1.3735372 0.11058497
0.080176249 4.6165657 1.3807846 0.1076213
0.23984119 4.6230812 1.3871677 0.109586
0.50848246 4.6077976 1.3757945 0.11526537
0.73485219 4.6180739 1.3793759 0.11595309
0.8335942 4.6296749 1.3623774 0.11824989
1.0378177 4.6069403 1.3728079 0.088026524
1.287899 4.6281562 1.363518 0.11920345
1.5253743 4.6122551 1.3893436 0.11550364
1.7269261 4.6098976 1.3887414 0.11759365
1.8267546 4.6121659 1.357116 0.12037468
2.1778975 4.6050205 1.3504117 0.12024975
2.3653212 4.6227765 1.38959 0.11956263
2.5614405 4.6075559 1.3962891 0.088488378
3.2588012 4.6007257 1.3507851 0.03125
4.8399272 4.6185136 1.3012446 0.035499573
5.8629632 4.6010418 1.3913482 0.095049426
6.1230326 4.6242208 1.3958474 0.034900665
6.232193 4.6117101 1.3795028 0.038000107
6.5036931 4.6147299 1.3920686 0.081178367
6.7284431 4.6055765 1.3759512 0.095749922
6.988029 4.6671839 1.3972691 0.039750099
7.0930166 4.6130037 1.3823507 0.081836522
7.3068714 4.6157389 1.3845897 0.068015628
7.5305552 4.6473446 1.3785205 0.093141735
7.7565022 4.6387644 1.3685079 0.09328822
7.862402 4.6709418 1.3864188 0.093435042
8.130661 4.6673174 1.3899744 0.097521819
8.3453779 4.6493959 1.3918705 0.090428852
8.5315971 4.6322846 1.3908033 0.084402025
8.6828041 4.6380072 1.3894497 0.091676846
8.896493 4.6238098 1.3866957 0.34180665
9.0439339 4.6909399 1.3893946 0.069390863
9.3480206 4.624238 1.370985 0.088103339
9.4924364 4.6349583 1.3862747 0.071342006
9.6592407 4.6136065 1.383281 0.039838515
9.9585323 4.6429672 1.3820422 0.086768128
10.054514 4.6357574 1.3766952 0.040982723
10.331577 4.6515903 1.3854206 0.53395092
10.521932 4.6253853 1.376821 0.96936482
10.737314 4.6551437 1.383931 0.088650644
10.88777 4.6593103 1.3957758 0.099954888
11.086124 4.6590629 1.3936583 0.096792914
11.263 4.639267 1.3841385 0.073620558
11.516436 4.6575584 1.3845761 0.093805254
11.666303 4.6684194 1.3892372 0.10803042
11.915543 4.6665049 1.3901275 0.10927801
12.059769 4.6697788 1.3849499 0.11071281
12.244211 4.6499863 1.3968673 0.10969548
12.564182 4.6519241 1.3973296 0.11107386
12.697077 4.630466 1.3857346 0.11151692
12.914532 4.6512394 1.3949163 0.11241335
13.189629 4.6646032 1.3885744 0.11814243
13.258845 4.6440363 1.3962111 0.11347492
13.567947 4.65453 1.3958068 0.11649832
13.710139 4.6549854 1.3818245 0.10336171
13.945625 4.6569057 1.397613 0.11780865
14.144872 4.617631 1.3808255 0.10714271
14.362928 4.6526132 1.3951046 0.11988398
14.486028 4.6169662 1.3781666 0.099279732
14.688217 4.6319437 1.3787925 0.081074625
14.897186 4.6240616 1.3682356 0.10796346
15.03697 4.6399994 1.3656181 0.093948819
15.25221 4.6150708 1.349406 0.10323496
15.461503 4.6184225 1.3518262 0.10338586
15.753736 4.6475606 1.3612378 0.10410997
15.942448 4.6446314 1.3388239 0.10144411
16.026649 4.6527405 1.3472931 0.10185158
16.301283 4.6365547 1.3371218 0.10206222
16.424175 4.6521931 1.3414595 0.1021359
16.718422 4.7015018 1.3701243 0.10303337
16.840845 4.6881962 1.36227 0.10318023
17.106909 4.644136 1.3298614 0.10209285
17.331606 4.6311131 1.3139424 0.10176244
17.57378 4.6463957 1.3279631 0.10296464
17.717361 4.6432991 1.3560228 0.34838036
17.935295 4.7102766 1.3256345 0.22944093
18.005291 4.6477804 1.3198196 0.050744068
17.924477 4.8016701 1.3912416 0.60319984
-1.8597076 -2.6064816 1.4062657 0.049347401
-1.9124249 -2.5931778 1.4140285 0.04928875
-1.5194936 -2.4123433 1.4893284 0.049526215
-1.3348196 -2.4552727 1.4517677 0.049643517
-1.8264931 -2.3366337 1.5410845 0.049645424
-1.7574589 -2.3488507 1.5290742 0.04964117
-1.5841285 -2.3526239 1.4842186 0.049554825
-1.2886044 -2.2059331 1.5763509 0.049881935
-1.8229498 -2.1056566 1.5104942 0.049865961
-1.7885435 -2.0209641 1.526274 0.04998523
-1.4237458 -2.0048556 1.5845878 0.0501194
-1.3585565 -2.1467905 1.5809519 0.049911499
-1.8173399 -1.9019676 1.4829516 0.049854532
-1.7922323 -1.984841 1.5383673 0.050000191
-1.4802748 -1.9930141 1.5948585 0.0501194
17.430676 -1.8206673 1.4002246 0.046250343
-1.8329935 -1.7184908 1.441164 0.049878206
-1.7596765 -1.6735506 1.5793054 0.049939632
-1.5680633 -1.7510159 1.5467062 0.049879074
-1.361208 -1.7150395 1.4768914 0.051460266
17.948488 -1.7791715 1.4416653 0.047749519
18.010748 -1.6099128 1.452011 0.045999527
-1.8419662 -1.4596756 1.4300216 0.05659993
-1.7356896 -1.4719169 1.4145225 0.088947952
-1.533731 -1.4787591 1.4642267 0.06695395
-1.2802806 -1.4684608 1.4370946 0.067882404
-0.52907133 -1.4019462 1.4099588 0.09275341
-0.29397309 -1.449895 1.420704 0.095443726
2.4373446 -1.4181752 1.4019769 0.088578224
5.129529 -1.4403174 1.4212232 0.054312229
8.44767 -1.4662331 1.4064832 0.057524681
8.7434759 -1.4086921 1.4210584 0.058010101
8.9273624 -1.4001751 1.4105791 0.059123993
9.1782064 -1.4257834 1.4132434 0.058495522
17.481771 -1.5098917 1.4593202 0.047499657
17.709 -1.5080631 1.4306381 0.050724506
17.939411 -1.5102848 1.424829 0.049225807
18.177114 -1.5726043 1.4296182 0.048325539
-1.8422444 -1.2232196 1.4279274 0.050312437
-1.7221684 -1.3200438 1.4683597 0.068501413
-1.4423666 -1.2889004 1.4745549 0.076908395
-1.2491798 -1.2543323 1.4940722 0.088489443
-1.1414342 -1.3283913 1.433017 0.093252659
-0.85084879 -1.2257481 1.490077 0.093566388
-0.64932764 -1.3348036 1.4497004 0.094166756
-0.52875912 -1.2924426 1.4776554 0.09495163
-0.27142429 -1.2629005 1.4850066 0.094318867
-0.19553855 -1.2813537 1.4801317 0.094470978
1.8571553 -1.2904284 1.4076384 0.06963852
2.3819418 -1.2946452 1.4436027 0.081310622
2.9039681 -1.2970593 1.4178718 0.075712912
3.2710073 -1.2343621 1.4644431 0.080048606
3.7918875 -1.2697848 1.4494574 0.082932591
3.9146135 -1.2732823 1.4108498 0.06899035
4.1058464 -1.2264712 1.4460263 0.073399611
4.3244543 -1.2441401 1.4258246 0.072872713
4.5003538 -1.2953165 1.4287195 0.085631013
4.6387563 -1.2705038 1.4363117 0.085241884
4.9464741 -1.263615 1.4339155 0.076214194
5.1095409 -1.2492466 1.430865 0.070117101
5.3118525 -1.3422327 1.407268 0.081480548
5.4806728 -1.2634673 1.4332943 0.078581691
5.8983722 -1.3010379 1.4229369 0.086480141
6.1124864 -1.2269659 1.446945 0.078020453
6.2558146 -1.2739757 1.4369562 0.076024234
6.4377012 -1.266516 1.4386306 0.076234549
6.7259798 -1.2245543 1.4790559 0.088100433
6.806849 -1.2620212 1.4415741 0.086310863
7.0875158 -1.3486121 1.4036361 0.084679008
7.3227539 -1.2625192 1.4429299 0.068825126
7.4849792 -1.295351 1.4257829 0.063645601
7.7489367 -1.2868412 1.4597166 0.061852932
7.9897766 -1.3146369 1.4520115 0.061453484
8.0852442 -1.2826085 1.4429468 0.063820004
8.2300997 -1.2816877 1.4419307 0.063526154
8.4692497 -1.3040981 1.4667289 0.064624727
8.7048054 -1.3105638 1.4315753 0.061985016
8.9510021 -1.2552093 1.4867246 0.058662176
9.0597973 -1.2830986 1.4444475 0.07243681
9.5548134 -1.3119884 1.440835 0.057782173
9.7128592 -1.3404932 1.4070686 0.057106972
9.9598103 -1.23858 1.4439597 0.057209969
10.097648 -1.2721218 1.4265754 0.058199167
10.271605 -1.2816579 1.4213088 0.058415413
10.66941 -1.2134646 1.4460821 0.058415413
10.904764 -1.2388057 1.4198494 0.069796965
11.125942 -1.2361064 1.4246826 0.059134483
11.519077 -1.2452039 1.4080365 0.058911324
11.629705 -1.2631782 1.404652 0.0598526
12.110628 -1.2253128 1.4070008 0.059158325
17.385759 -1.2368574 1.5159926 0.050999641
17.501896 -1.290179 1.4500842 0.05155012
17.662064 -1.2490072 1.504914 0.050758123
17.919621 -1.3108335 1.451193 0.07129395
18.040577 -1.2782052 1.4190866 0.050333679
-1.8499328 -1.0992236 1.5404983 0.053547423
-1.7444689 -1.1786196 1.5241334 0.088960007
-1.4513624 -1.0866752 1.5719306 0.088030472
-1.3296373 -1.1471236 1.5399716 0.076031834
-1.1305988 -1.0563372 1.5786157 0.093875289
-0.8667239 -1.0998646 1.5533599 0.093968868
-0.71492672 -1.0265551 1.5895817 0.09439671
-0.46123415 -1.0956157 1.5608516 0.094463825
-0.38278997 -1.036947 1.5998533 0.09495163
1.6110626 -1.0249313 1.5429019 0.069471128
2.1137753 -1.1321545 1.508037 0.075716421
2.509006 -1.1182861 1.5134001 0.075714663
2.7118835 -1.1022866 1.5257368 0.077891171
3.1310101 -1.1308172 1.4935155 0.072016709
3.4450161 -1.0589399 1.5217674 0.069741458
3.666374 -1.1967754 1.4556818 0.068750024
3.885632 -1.0682682 1.5387666 0.075820446
4.0891209 -1.1660417 1.4629675 0.070224807
4.2670636 -1.0609777 1.5120928 0.069805712
4.4743929 -1.108886 1.4909351 0.073055372
4.7195377 -1.1781991 1.4884145 0.083368897
4.9254169 -1.1383984 1.4915767 0.072602272
5.1680627 -1.1397611 1.478945 0.068345308
5.3135509 -1.139879 1.4956733 0.073700845
5.6746612 -1.1149201 1.4919677 0.074798852
5.8800993 -1.1013863 1.5061255 0.07737828
6.1413164 -1.0719442 1.5300332 0.079576597
6.3517323 -1.1039996 1.5127513 0.067751877
6.5122805 -1.1498311 1.4758055 0.077622533
6.7004318 -1.0867038 1.5311978 0.076353788
